ply
format ascii 1.0
comment Cube point cloud with 125 points
element vertex 125
property float x
property float y
property float z
end_header
-1.000000 -1.000000 -1.000000
-1.000000 -1.000000 -0.500000
-1.000000 -1.000000 0.000000
-1.000000 -1.000000 0.500000
-1.000000 -1.000000 1.000000
-1.000000 -0.500000 -1.000000
-1.000000 -0.500000 -0.500000
-1.000000 -0.500000 0.000000
-1.000000 -0.500000 0.500000
-1.000000 -0.500000 1.000000
-1.000000 0.000000 -1.000000
-1.000000 0.000000 -0.500000
-1.000000 0.000000 0.000000
-1.000000 0.000000 0.500000
-1.000000 0.000000 1.000000
-1.000000 0.500000 -1.000000
-1.000000 0.500000 -0.500000
-1.000000 0.500000 0.000000
-1.000000 0.500000 0.500000
-1.000000 0.500000 1.000000
-1.000000 1.000000 -1.000000
-1.000000 1.000000 -0.500000
-1.000000 1.000000 0.000000
-1.000000 1.000000 0.500000
-1.000000 1.000000 1.000000
-0.500000 -1.000000 -1.000000
-0.500000 -1.000000 -0.500000
-0.500000 -1.000000 0.000000
-0.500000 -1.000000 0.500000
-0.500000 -1.000000 1.000000
-0.500000 -0.500000 -1.000000
-0.500000 -0.500000 -0.500000
-0.500000 -0.500000 0.000000
-0.500000 -0.500000 0.500000
-0.500000 -0.500000 1.000000
-0.500000 0.000000 -1.000000
-0.500000 0.000000 -0.500000
-0.500000 0.000000 0.000000
-0.500000 0.000000 0.500000
-0.500000 0.000000 1.000000
-0.500000 0.500000 -1.000000
-0.500000 0.500000 -0.500000
-0.500000 0.500000 0.000000
-0.500000 0.500000 0.500000
-0.500000 0.500000 1.000000
-0.500000 1.000000 -1.000000
-0.500000 1.000000 -0.500000
-0.500000 1.000000 0.000000
-0.500000 1.000000 0.500000
-0.500000 1.000000 1.000000
0.000000 -1.000000 -1.000000
0.000000 -1.000000 -0.500000
0.000000 -1.000000 0.000000
0.000000 -1.000000 0.500000
0.000000 -1.000000 1.000000
0.000000 -0.500000 -1.000000
0.000000 -0.500000 -0.500000
0.000000 -0.500000 0.000000
0.000000 -0.500000 0.500000
0.000000 -0.500000 1.000000
0.000000 0.000000 -1.000000
0.000000 0.000000 -0.500000
0.000000 0.000000 0.000000
0.000000 0.000000 0.500000
0.000000 0.000000 1.000000
0.000000 0.500000 -1.000000
0.000000 0.500000 -0.500000
0.000000 0.500000 0.000000
0.000000 0.500000 0.500000
0.000000 0.500000 1.000000
0.000000 1.000000 -1.000000
0.000000 1.000000 -0.500000
0.000000 1.000000 0.000000
0.000000 1.000000 0.500000
0.000000 1.000000 1.000000
0.500000 -1.000000 -1.000000
0.500000 -1.000000 -0.500000
0.500000 -1.000000 0.000000
0.500000 -1.000000 0.500000
0.500000 -1.000000 1.000000
0.500000 -0.500000 -1.000000
0.500000 -0.500000 -0.500000
0.500000 -0.500000 0.000000
0.500000 -0.500000 0.500000
0.500000 -0.500000 1.000000
0.500000 0.000000 -1.000000
0.500000 0.000000 -0.500000
0.500000 0.000000 0.000000
0.500000 0.000000 0.500000
0.500000 0.000000 1.000000
0.500000 0.500000 -1.000000
0.500000 0.500000 -0.500000
0.500000 0.500000 0.000000
0.500000 0.500000 0.500000
0.500000 0.500000 1.000000
0.500000 1.000000 -1.000000
0.500000 1.000000 -0.500000
0.500000 1.000000 0.000000
0.500000 1.000000 0.500000
0.500000 1.000000 1.000000
1.000000 -1.000000 -1.000000
1.000000 -1.000000 -0.500000
1.000000 -1.000000 0.000000
1.000000 -1.000000 0.500000
1.000000 -1.000000 1.000000
1.000000 -0.500000 -1.000000
1.000000 -0.500000 -0.500000
1.000000 -0.500000 0.000000
1.000000 -0.500000 0.500000
1.000000 -0.500000 1.000000
1.000000 0.000000 -1.000000
1.000000 0.000000 -0.500000
1.000000 0.000000 0.000000
1.000000 0.000000 0.500000
1.000000 0.000000 1.000000
1.000000 0.500000 -1.000000
1.000000 0.500000 -0.500000
1.000000 0.500000 0.000000
1.000000 0.500000 0.500000
1.000000 0.500000 1.000000
1.000000 1.000000 -1.000000
1.000000 1.000000 -0.500000
1.000000 1.000000 0.000000
1.000000 1.000000 0.500000
1.000000 1.000000 1.000000
