ply
format ascii 1.0
comment Structured rock surface for Poisson reconstruction
element vertex 854
property float x
property float y
property float z
property float nx
property float ny
property float nz
end_header
0.281360 0.482114 0.008863 0.505727 0.832199 0.227344
-0.189566 0.383665 0.218002 -0.526523 0.730742 0.434500
0.024693 0.292757 -0.473402 0.391263 0.713619 -0.581086
0.126148 0.335033 0.341728 0.474818 0.655019 0.587791
-0.272863 0.468841 -0.045803 -0.653615 0.756306 0.028092
0.228679 0.418294 -0.141218 0.529951 0.799895 -0.281637
-0.059549 0.300261 0.444075 -0.023084 0.592520 0.805225
-0.086354 0.310959 -0.409132 -0.172442 0.745140 -0.644228
0.251954 0.441536 0.095542 0.508188 0.787023 0.349770
-0.260171 0.450361 0.079017 -0.619788 0.721983 0.307576
0.098709 0.315627 -0.391531 0.478745 0.664160 -0.574190
0.049584 0.294748 0.455890 0.342289 0.536097 0.771646
-0.220736 0.405964 -0.162346 -0.593611 0.739963 -0.316354
0.280879 0.473087 -0.033576 0.529188 0.844506 0.082278
-0.141587 0.339214 0.319581 -0.385172 0.706213 0.594059
-0.015592 0.286121 -0.479174 0.222557 0.756057 -0.615505
0.182386 0.368758 0.242267 0.511445 0.718906 0.470742
-0.288834 0.480777 -0.000957 -0.652651 0.735047 0.183718
0.185502 0.370187 -0.237379 0.512913 0.720939 -0.466012
-0.017730 0.284692 0.478936 0.144745 0.522048 0.840544
-0.140703 0.335361 -0.324552 -0.386881 0.714346 -0.583123
0.283338 0.471019 0.035536 0.512472 0.805798 0.296754
-0.226527 0.405569 0.157566 -0.587162 0.715473 0.378601
0.053168 0.290537 -0.455128 0.439361 0.682802 -0.583733
0.099274 0.308970 0.396523 0.430267 0.594928 0.678919
-0.264957 0.445730 -0.081265 -0.657327 0.747786 -0.093470
0.260586 0.439950 -0.091101 0.547213 0.825437 -0.138603
-0.092619 0.304234 0.407626 -0.170584 0.631439 0.756430
-0.060434 0.290647 -0.448874 -0.033802 0.755667 -0.654083
0.235494 0.410391 0.144300 0.520806 0.757285 0.394056
-0.284307 0.466369 0.042198 -0.642339 0.713682 0.279391
0.135966 0.326353 -0.339025 0.491546 0.664787 -0.562531
0.024501 0.280176 0.477795 0.266701 0.504845 0.820976
-0.197874 0.371923 -0.222598 -0.541630 0.713631 -0.444261
0.295459 0.478394 -0.006598 0.531297 0.824194 0.196031
-0.180910 0.356493 0.257302 -0.499916 0.707366 0.499718
0.010211 0.277061 -0.483063 0.328616 0.729840 -0.599454
0.155791 0.336394 0.306372 0.495376 0.668290 0.554969
-0.293070 0.472546 -0.026179 -0.670913 0.734026 0.105275
0.223693 0.392226 -0.174962 0.537542 0.757877 -0.369691
-0.046395 0.281224 0.464821 0.031899 0.542130 0.839689
-0.112968 0.307632 -0.382516 -0.282121 0.715870 -0.638700
0.277413 0.449782 0.068033 0.522945 0.778437 0.347224
-0.260196 0.428542 0.104226 -0.624734 0.701172 0.343606
0.086207 0.293191 -0.422652 0.465863 0.658614 -0.590931
0.072148 0.287104 0.440391 0.367968 0.539992 0.756973
-0.249987 0.415135 -0.126918 -0.641957 0.729793 -0.235146
0.286862 0.458444 -0.051374 0.557408 0.830142 0.012658
-0.129978 0.313683 0.358035 -0.324095 0.664357 0.673492
-0.034202 0.274716 -0.475004 0.111223 0.758635 -0.641952
0.213441 0.375698 0.202847 0.526473 0.722143 0.448705
-0.301213 0.474870 0.013976 -0.662359 0.709936 0.239313
0.175824 0.342700 -0.277597 0.509821 0.681622 -0.524856
-0.002074 0.269879 0.485790 0.180043 0.493206 0.851077
-0.171308 0.338141 -0.287338 -0.468687 0.692770 -0.548090
0.302010 0.473276 0.017642 0.534805 0.796641 0.281685
-0.220213 0.378382 0.193348 -0.577294 0.696178 0.426694
0.039183 0.272347 -0.473115 0.400305 0.696325 -0.595724
0.127374 0.306972 0.367167 0.456254 0.609972 0.647894
-0.289243 0.453549 -0.055890 -0.683125 0.730281 -0.005512
0.259026 0.416217 -0.118475 0.563834 0.791902 -0.234483
-0.079454 0.282544 0.436484 -0.103082 0.577131 0.810120
-0.084713 0.284148 -0.430437 -0.156340 0.730470 -0.664810
0.264110 0.420092 0.110368 0.534799 0.750447 0.388355
-0.288552 0.449318 0.061281 -0.649591 0.690744 0.317655
0.123634 0.301283 -0.376408 0.483052 0.646309 -0.590716
0.044729 0.269761 0.470797 0.294072 0.498611 0.815419
-0.228969 0.380037 -0.183232 -0.602130 0.703385 -0.377741
0.306081 0.470128 -0.021368 0.560858 0.814476 0.148547
-0.170277 0.328920 0.298066 -0.458399 0.679104 0.573313
-0.006740 0.263160 -0.487126 0.241707 0.744746 -0.622038
0.187145 0.340600 0.267621 0.516766 0.678641 0.521918
-0.310117 0.473075 -0.009807 -0.682427 0.709470 0.175915
0.216123 0.364161 -0.212627 0.537400 0.712841 -0.450620
-0.031477 0.263923 0.479995 0.078770 0.501570 0.861524
-0.142412 0.307015 -0.350552 -0.377706 0.686421 -0.621421
0.300378 0.456878 0.044846 0.541875 0.767760 0.341931
-0.257106 0.403072 0.133896 -0.624961 0.681764 0.380291
0.072332 0.272329 -0.449019 0.442963 0.663771 -0.602654
0.098102 0.281807 0.419014 0.396320 0.551274 0.734185
-0.277767 0.425145 -0.094792 -0.680326 0.718334 -0.145441
0.289392 0.439023 -0.072080 0.583548 0.808605 -0.075037
-0.116940 0.289224 0.393954 -0.254397 0.616156 0.745408
-0.056104 0.265331 -0.465164 -0.013341 0.747252 -0.664407
0.244341 0.384875 0.163969 0.542716 0.719913 0.432648
-0.310058 0.464112 0.028974 -0.669708 0.684976 0.286877
0.164296 0.315258 -0.318496 0.502118 0.649776 -0.570674
0.016285 0.256917 0.487082 0.211502 0.475442 0.853945
-0.203185 0.343763 -0.247414 -0.539507 0.676801 -0.500872
0.317362 0.471812 0.002524 0.562072 0.786790 0.255025
-0.211460 0.349691 0.232667 -0.556246 0.675900 0.483476
0.023220 0.255965 -0.485460 0.340846 0.715213 -0.610159
0.157992 0.307783 0.332770 0.484372 0.625763 0.611395
-0.310759 0.459614 -0.034870 -0.700469 0.709169 0.080146
0.254469 0.389221 -0.150501 0.571544 0.749946 -0.333046
-0.064806 0.262577 0.460183 -0.042006 0.527936 0.848245
-0.112268 0.280110 -0.406135 -0.268131 0.697891 -0.664119
0.290868 0.430159 0.080304 0.551764 0.739839 0.384961
-0.289402 0.427614 0.083915 -0.654350 0.669365 0.351817
0.109890 0.277566 -0.410496 0.468540 0.639309 -0.609716
0.068336 0.261449 0.458090 0.322802 0.501663 0.802579
-0.259446 0.390134 -0.145268 -0.653694 0.695411 -0.298475
0.313146 0.456792 -0.036996 0.592471 0.801417 0.081906
-0.157903 0.301815 0.338665 -0.401946 0.644195 0.650732
-0.026609 0.251162 -0.485665 0.131822 0.751146 -0.646841
0.219309 0.347605 0.226928 0.538691 0.683672 0.492346
-0.323722 0.469377 0.004380 -0.689954 0.683571 0.238106
0.206259 0.335100 -0.253302 0.530434 0.670201 -0.519106
-0.014353 0.248483 0.489521 0.118579 0.471896 0.873644
-0.174009 0.309290 -0.313948 -0.459426 0.661230 -0.593044
0.320337 0.461602 0.025896 0.565382 0.755779 0.330365
-0.251149 0.374790 0.168262 -0.618393 0.663582 0.421009
0.056831 0.253306 -0.469931 0.405775 0.678541 -0.612315
0.127149 0.279088 0.391827 0.428186 0.567447 0.703321
-0.303335 0.434987 -0.066980 -0.708778 0.703590 -0.050931
0.288607 0.415171 -0.096903 0.603144 0.777756 -0.176952
-0.102470 0.266357 0.425883 -0.183229 0.565909 0.803850
-0.081415 0.258139 -0.449560 -0.138222 0.721581 -0.678392
0.274178 0.395717 0.127325 0.560495 0.712170 0.422680
-0.315352 0.448164 0.045634 -0.675350 0.661055 0.326968
0.151112 0.288679 -0.358350 0.490108 0.628565 -0.603904
0.037747 0.245908 0.482876 0.241553 0.467931 0.850113
-0.235396 0.352090 -0.206386 -0.601527 0.666339 -0.440633
0.329184 0.465672 -0.011098 0.593752 0.775984 0.212857
-0.200552 0.320513 0.274339 -0.521273 0.652741 0.549730
0.004817 0.241483 -0.492199 0.257312 0.734013 -0.628502
0.190353 0.311546 0.294236 0.513932 0.638741 0.572611
-0.329071 0.462687 -0.017821 -0.711029 0.684783 0.159715
0.247181 0.359916 -0.187111 0.569321 0.703477 -0.425433
-0.048356 0.244531 0.478238 0.010564 0.487382 0.873125
-0.142668 0.278767 -0.376135 -0.364349 0.664410 -0.652541
0.315099 0.439474 0.054862 0.572173 0.726352 0.380828
-0.287036 0.401796 0.111129 -0.655564 0.649957 0.384437
0.094655 0.255637 -0.439992 0.445287 0.644118 -0.621958
0.095314 0.255429 0.439558 0.354785 0.512479 0.781980
-0.288440 0.401510 -0.110314 -0.696246 0.687103 -0.207682
0.316691 0.438248 -0.055078 0.622582 0.782538 -0.005109
-0.143929 0.275927 0.377333 -0.334098 0.602792 0.724583
-0.049723 0.241170 -0.478708 0.006976 0.742790 -0.669488
0.251330 0.357167 0.186018 0.560964 0.682076 0.469139
-0.333744 0.460626 0.017838 -0.695010 0.657475 0.291013
0.194366 0.306050 -0.295558 0.518210 0.635030 -0.572884
0.005440 0.234970 0.493516 0.153467 0.452914 0.878246
-0.206905 0.314549 -0.273814 -0.529958 0.642556 -0.553413
0.336933 0.462724 0.010510 0.593711 0.743131 0.308649
-0.242602 0.344737 0.206939 -0.602307 0.645878 0.469114
0.039327 0.236260 -0.485104 0.349345 0.700029 -0.622831
0.158732 0.279174 0.359129 0.463582 0.585198 0.665308
-0.326100 0.443455 -0.043951 -0.727828 0.684368 0.043671
0.284719 0.387606 -0.126641 0.612130 0.737579 -0.285086
-0.086413 0.245432 0.452726 -0.116911 0.518751 0.846894
-0.109988 0.253346 -0.428073 -0.251846 0.686583 -0.682039
0.302141 0.407384 0.094384 0.580182 0.699541 0.417171
-0.317183 0.427095 0.065502 -0.679257 0.638978 0.360994
0.136350 0.263626 -0.395411 0.472957 0.619725 -0.626301
0.062546 0.236966 0.473146 0.272681 0.469649 0.839687
-0.266996 0.362766 -0.166053 -0.656139 0.659724 -0.366394
0.337402 0.454190 -0.024815 0.628233 0.763145 0.151438
-0.187722 0.291822 0.316728 -0.471083 0.624612 0.622849
-0.016466 0.228951 -0.493490 0.150006 0.745126 -0.649835
0.223545 0.318288 0.252883 0.543972 0.645869 0.535675
-0.343902 0.461583 -0.003798 -0.716749 0.658171 0.230394
0.237445 0.329397 -0.227597 0.558404 0.658336 -0.504757
-0.029686 0.228496 0.490546 0.055088 0.456930 0.887795
-0.175238 0.280331 -0.340904 -0.445445 0.635174 -0.630977
0.336290 0.446762 0.034207 0.596529 0.711019 0.372297
-0.281691 0.372737 0.143449 -0.651420 0.632645 0.418822
0.077701 0.235761 -0.464021 0.409223 0.659766 -0.630274
0.125376 0.251920 0.415105 0.391394 0.528913 0.753035
-0.315202 0.413191 -0.079649 -0.729170 0.675700 -0.108356
0.316852 0.414780 -0.077057 0.646118 0.755253 -0.110113
-0.128364 0.251829 0.412405 -0.261521 0.557736 0.787742
-0.076208 0.233315 -0.466167 -0.119468 0.718214 -0.685490
0.282287 0.368801 0.146714 0.583581 0.673666 0.453439
-0.340169 0.446343 0.032248 -0.698584 0.632363 0.334809
0.180635 0.277928 -0.337606 0.501822 0.610952 -0.612301
0.028297 0.223431 0.492135 0.186041 0.443895 0.876554
-0.240151 0.322739 -0.231664 -0.592424 0.630630 -0.501338
0.349966 0.459146 -0.002505 0.626666 0.730044 0.272628
-0.231741 0.314035 0.248903 -0.573756 0.627148 0.526772
0.019378 0.221238 -0.494592 0.269471 0.722899 -0.636241
0.192074 0.282253 0.321584 0.501595 0.600652 0.622591
-0.345630 0.449229 -0.025554 -0.738738 0.660637 0.133512
0.277986 0.357333 -0.161520 0.608725 0.691364 -0.389191
-0.068474 0.226634 0.473844 -0.058888 0.478619 0.876046
-0.141401 0.251180 -0.400669 -0.348548 0.649413 -0.675853
0.327553 0.418775 0.066188 0.602244 0.683087 0.413152
-0.315726 0.401403 0.089868 -0.680659 0.619401 0.391209
0.119949 0.240575 -0.428160 0.448375 0.623701 -0.640279
0.090683 0.230240 0.457744 0.307249 0.479341 0.822089
-0.297105 0.375167 -0.128208 -0.703437 0.654157 -0.277947
0.342058 0.437093 -0.040350 0.662174 0.746238 0.068221
-0.173112 0.264456 0.357952 -0.407496 0.590458 0.696639
-0.040957 0.218417 -0.489452 0.026050 0.741226 -0.670749
0.256603 0.327862 0.210394 0.573607 0.645290 0.504556
-0.355120 0.455320 0.008608 -0.719476 0.630779 0.290641
0.225516 0.298784 -0.270643 0.541195 0.620261 -0.567789
-0.008350 0.214486 0.497276 0.093535 0.436646 0.894758
-0.209120 0.284951 -0.301323 -0.514778 0.612939 -0.599424
0.354092 0.450693 0.017875 0.625277 0.694803 0.355355
-0.273639 0.341549 0.180776 -0.639417 0.617068 0.458665
0.058677 0.218054 -0.482187 0.355351 0.683565 -0.637546
0.157971 0.251156 0.384798 0.433100 0.547908 0.715696
-0.339137 0.423965 -0.054040 -0.752008 0.659132 -0.005321
0.313836 0.387084 -0.104024 0.657827 0.718526 -0.225799
-0.111075 0.229894 0.442553 -0.191377 0.513535 0.836455
-0.105928 0.227766 -0.447848 -0.234684 0.682008 -0.692667
0.311358 0.381741 0.110720 0.606741 0.659127 0.444315
-0.343090 0.426479 0.049323 -0.700993 0.609333 0.370571
0.165152 0.251479 -0.377536 0.481099 0.599937 -0.639233
0.054456 0.213922 0.485433 0.219071 0.443940 0.868865
-0.272787 0.333601 -0.189317 -0.649094 0.624070 -0.434986
0.359367 0.450036 -0.014733 0.663087 0.716074 0.218068
-0.218792 0.283770 0.292580 -0.530584 0.605283 0.593392
-0.003444 0.208235 -0.498632 0.165463 0.739347 -0.652677
0.226254 0.288424 0.280305 0.540608 0.610111 0.579231
-0.361656 0.451002 -0.011024 -0.743431 0.633458 0.214571
0.268680 0.325539 -0.201097 0.594235 0.645034 -0.480434
-0.048257 0.210019 0.489065 -0.009608 0.447507 0.894229
-0.174982 0.251874 -0.367553 -0.428695 0.615981 -0.660899
0.349905 0.428586 0.043199 0.627272 0.664073 0.406862
-0.311214 0.371965 0.119575 -0.678027 0.602723 0.420718
0.101702 0.219804 -0.455495 0.412570 0.639685 -0.648529
0.121882 0.225921 0.436455 0.347234 0.495250 0.796339
-0.324966 0.388382 -0.094404 -0.742320 0.646272 -0.176900
0.343289 0.414567 -0.059354 0.690246 0.722666 -0.036256
-0.156743 0.239057 0.396145 -0.335984 0.551516 0.763508
-0.068786 0.209957 -0.480057 -0.101185 0.719436 -0.687149
0.288593 0.339883 0.168676 0.602296 0.636540 0.481722
-0.362717 0.443254 0.021111 -0.720619 0.604161 0.340143
0.211583 0.269105 -0.314461 0.519730 0.593409 -0.614611
0.016041 0.202485 0.498688 0.128584 0.425957 0.895559
-0.243354 0.292660 -0.258741 -0.576363 0.598320 -0.556614
0.368311 0.450020 0.004819 0.658555 0.678388 0.325722
-0.263141 0.309459 0.222320 -0.616636 0.602120 0.507160
0.037159 0.202521 -0.494511 0.279036 0.710416 -0.646102
0.192321 0.253359 0.349025 0.479109 0.565507 0.671310
-0.359818 0.432460 -0.033620 -0.765174 0.636693 0.095560
0.307894 0.356199 -0.136529 0.654703 0.674573 -0.341050
-0.091786 0.210311 0.466932 -0.128550 0.474363 0.870893
-0.138468 0.224735 -0.423548 -0.331881 0.641820 -0.691320
0.337861 0.394934 0.079381 0.630872 0.639691 0.439085
-0.342682 0.401452 0.070601 -0.701794 0.589316 0.400239
0.147865 0.227236 -0.413589 0.454248 0.602571 -0.656176
0.083922 0.206541 0.473291 0.255321 0.452023 0.854685
-0.303921 0.346614 -0.148707 -0.700685 0.620199 -0.352695
0.365186 0.434963 -0.027974 0.700129 0.699882 0.141366
-0.203896 0.254888 0.336026 -0.473011 0.578404 0.664612
-0.029463 0.197235 -0.497463 0.043306 0.741124 -0.669970
0.260297 0.297633 0.236863 0.578843 0.610986 0.540034
-0.374054 0.447631 0.000941 -0.744075 0.604595 0.284283
0.257047 0.293458 -0.244247 0.571905 0.604895 -0.554100
-0.025333 0.195552 0.498572 0.032498 0.425881 0.904195
-0.209868 0.255627 -0.329335 -0.496107 0.589605 -0.637373
0.368850 0.435408 0.025217 0.655906 0.643765 0.394150
-0.303909 0.339950 0.154848 -0.669121 0.588901 0.453292
0.081275 0.201416 -0.476842 0.360592 0.665270 -0.653750
0.155595 0.224238 0.409128 0.393776 0.514727 0.761575
-0.349983 0.401228 -0.065731 -0.771209 0.633007 -0.067378
0.341301 0.387255 -0.083197 0.706143 0.690604 -0.156294
-0.138489 0.216046 0.429713 -0.263877 0.511234 0.817930
-0.099822 0.203694 -0.465097 -0.217786 0.683515 -0.696689
0.318681 0.353683 0.129632 0.629927 0.620311 0.467339
-0.366793 0.425185 0.035549 -0.720923 0.579786 0.379629
0.195729 0.241204 -0.357018 0.494618 0.580041 -0.647230
0.043721 0.192489 0.494961 0.163202 0.424097 0.890790
-0.276967 0.303303 -0.214919 -0.633474 0.590317 -0.500236
0.378889 0.443741 -0.006481 0.695720 0.661948 0.278923
-0.250418 0.277675 0.266645 -0.580444 0.585868 0.565547
0.012732 0.189100 -0.501294 0.178628 0.732511 -0.656902
0.227499 0.258690 0.308638 0.527370 0.577446 0.623247
-0.376982 0.437262 -0.017863 -0.770209 0.609228 0.188731
0.299290 0.323388 -0.174450 0.637634 0.628865 -0.444917
-0.070117 0.193110 0.485232 -0.074696 0.442805 0.893501
-0.173158 0.224462 -0.393219 -0.411006 0.604353 -0.682519
0.361286 0.407083 0.053491 0.656632 0.616859 0.433957
-0.339176 0.372116 0.097236 -0.699770 0.572980 0.426632
0.128578 0.205506 -0.444394 0.417819 0.618237 -0.665740
0.116425 0.201442 0.455431 0.297336 0.466761 0.832902
-0.332791 0.360959 -0.111644 -0.746125 0.615379 -0.254176
0.367564 0.413974 -0.044049 0.732684 0.679321 0.041196
-0.187072 0.228121 0.377192 -0.404870 0.546230 0.733289
-0.058807 0.188252 -0.491170 -0.084060 0.723797 -0.684874
0.293255 0.309610 0.193170 0.614939 0.602344 0.508951
-0.382826 0.438288 0.012036 -0.742584 0.576066 0.341639
0.243268 0.262239 -0.289261 0.544873 0.575685 -0.609673
0.000678 0.183156 0.502726 0.070039 0.413409 0.907848
-0.245090 0.262547 -0.287123 -0.555549 0.571306 -0.604132
0.384204 0.437863 0.011399 0.688611 0.623244 0.370652
-0.294066 0.306682 0.195202 -0.651170 0.577188 0.492780
0.058258 0.185379 -0.492135 0.287463 0.695723 -0.658281
0.191042 0.225433 0.375869 0.446598 0.533992 0.717915
-0.371732 0.412312 -0.042654 -0.789137 0.612622 0.044238
0.336340 0.356195 -0.112772 0.705259 0.650924 -0.280906
-0.118086 0.195622 0.457550 -0.197308 0.473703 0.858298
-0.133654 0.199811 -0.444253 -0.315627 0.641310 -0.699358
0.346183 0.368292 0.094909 0.656816 0.598009 0.459324
-0.367525 0.401414 0.053671 -0.720350 0.558918 0.410739
0.177904 0.215691 -0.396322 0.464645 0.580904 -0.668323
0.074698 0.184536 0.486064 0.200457 0.430232 0.880181
-0.309059 0.316476 -0.171873 -0.687833 0.586616 -0.427513
0.385882 0.431239 -0.017851 0.734624 0.644935 0.210681
-0.235603 0.247265 0.311820 -0.529818 0.565989 0.631624
-0.014922 0.177711 -0.502904 0.058823 0.740886 -0.669050
0.262518 0.267187 0.265008 0.575150 0.580278 0.576611
-0.390515 0.437073 -0.005634 -0.769457 0.578763 0.270128
0.288261 0.289997 -0.216932 0.610528 0.587990 -0.530588
-0.045648 0.178209 0.497601 -0.028918 0.419855 0.907130
-0.209127 0.227179 -0.357162 -0.476079 0.573579 -0.666601
0.381294 0.416727 0.033169 0.684842 0.592180 0.424636
-0.332826 0.339666 0.129812 -0.692959 0.560565 0.453403
0.106965 0.186391 -0.469134 0.366994 0.644879 -0.670408
0.151416 0.198832 0.431532 0.347013 0.485991 0.802119
-0.358798 0.375516 -0.079552 -0.782952 0.605697 -0.141833
0.366707 0.387619 -0.064585 0.753844 0.652280 -0.079052
-0.168196 0.203950 0.414215 -0.332898 0.510816 0.792620
-0.091349 0.181354 -0.479601 -0.201911 0.689853 -0.695223
0.324287 0.323805 0.151281 0.648255 0.584773 0.487653
-0.388077 0.422593 0.024169 -0.740250 0.549813 0.386958
0.227420 0.232848 -0.334046 0.514702 0.560029 -0.649191
0.030009 0.172759 0.501854 0.106081 0.409478 0.906132
-0.279664 0.272584 -0.242537 -0.611255 0.560482 -0.558773
0.395918 0.434774 0.000352 0.725267 0.603229 0.331817
-0.281894 0.273491 0.239425 -0.621362 0.565912 0.541898
0.032243 0.171579 -0.501692 0.190618 0.723437 -0.663553
0.227286 0.229717 0.337216 0.503638 0.548444 0.667501
-0.389956 0.420143 -0.024941 -0.796642 0.585352 0.150745
0.328664 0.322710 -0.148318 0.687352 0.608014 -0.397323
-0.095161 0.177801 0.479137 -0.139329 0.442041 0.886108
-0.169606 0.198537 -0.417253 -0.393901 0.600296 -0.696051
0.370589 0.382452 0.065658 0.683660 0.571380 0.454020
-0.365143 0.372729 0.076931 -0.718042 0.542523 0.435987
0.157912 0.192920 -0.430707 0.426769 0.595592 -0.680543
0.108700 0.178727 0.471729 0.243357 0.443301 0.862706
-0.338860 0.331477 -0.131626 -0.739074 0.583720 -0.336214
0.389437 0.412387 -0.031230 0.770838 0.625982 0.118136
-0.218709 0.219069 0.355664 -0.466855 0.540955 0.699582
-0.045931 0.168299 -0.499581 -0.068239 0.729543 -0.680523
0.296418 0.278696 0.219971 0.619975 0.572345 0.536704
-0.400427 0.430876 0.004682 -0.765394 0.547860 0.337671
0.274979 0.257309 -0.262434 0.577749 0.557244 -0.596393
-0.018007 0.165472 0.504471 0.011147 0.405518 0.914019
-0.245393 0.233060 -0.316186 -0.532422 0.550967 -0.642622
0.397710 0.422383 0.017836 0.716280 0.567077 0.406652
-0.323882 0.305509 0.168200 -0.678797 0.551630 0.484705
0.082622 0.169834 -0.487581 0.296540 0.678266 -0.672324
0.188107 0.198956 0.401425 0.404906 0.506335 0.761365
-0.381522 0.388911 -0.053264 -0.808486 0.588123 -0.021481
0.362863 0.356903 -0.090808 0.757344 0.618396 -0.209802
-0.147005 0.182608 0.445680 -0.263999 0.475749 0.839028
-0.126672 0.176679 -0.462391 -0.300681 0.646942 -0.700754
0.352706 0.339355 0.113116 0.678872 0.559843 0.475088
-0.389990 0.400690 0.039260 -0.737548 0.527521 0.421598
0.209447 0.205989 -0.376414 0.480871 0.558877 -0.675588
0.062663 0.164333 0.496074 0.143893 0.413420 0.899099
-0.312677 0.285461 -0.197585 -0.666111 0.555286 -0.497949
0.404059 0.425320 -0.009718 0.764512 0.583917 0.273060
-0.267519 0.241581 0.285684 -0.577842 0.552602 0.600607
0.002917 0.159869 -0.505998 0.073368 0.738977 -0.669724
0.263325 0.237209 0.294263 0.561393 0.553765 0.614966
-0.404553 0.423285 -0.011686 -0.795841 0.553275 0.246016
0.318504 0.288246 -0.189321 0.656501 0.568222 -0.496115
-0.069297 0.162465 0.494516 -0.089998 0.417859 0.904043
-0.206797 0.200122 -0.384087 -0.456555 0.565197 -0.687102
0.391570 0.394695 0.042362 0.711443 0.542249 0.447006
-0.359901 0.340321 0.106275 -0.712346 0.531117 0.458778
0.135426 0.173010 -0.459052 0.376375 0.622442 -0.686227
0.145171 0.175237 0.451530 0.294513 0.461629 0.836756
-0.365770 0.347282 -0.095927 -0.784591 0.577267 -0.226231
0.389766 0.387603 -0.048464 0.797529 0.603277 0.002158
-0.199606 0.193653 0.396060 -0.397072 0.511283 0.762184
-0.080161 0.160869 -0.491297 -0.187344 0.699342 -0.689800
0.328350 0.292799 0.175652 0.660351 0.553952 0.507024
-0.406835 0.418083 0.015009 -0.760015 0.519067 0.391083
0.259513 0.226420 -0.308887 0.542035 0.539695 -0.644149
0.013038 0.154757 0.506321 0.048550 0.399388 0.915496
-0.280960 0.242154 -0.271674 -0.585062 0.536290 -0.608354
0.410495 0.422708 0.006288 0.751327 0.542725 0.375442
-0.312548 0.271096 0.211496 -0.654462 0.544782 0.524302
0.055140 0.155670 -0.500008 0.203023 0.711218 -0.673016
0.225546 0.202059 0.365311 0.469470 0.523167 0.711263
-0.400718 0.399609 -0.032897 -0.821425 0.561748 0.098489
0.356286 0.323173 -0.123343 0.741065 0.580485 -0.337433
-0.123121 0.164110 0.470789 -0.202626 0.444478 0.872572
-0.164088 0.174431 -0.439098 -0.378505 0.603196 -0.702060
0.378006 0.355085 0.080191 0.707473 0.529565 0.468021
-0.388798 0.373257 0.059023 -0.734069 0.510507 0.447802
0.189146 0.182086 -0.414396 0.440815 0.572038 -0.691704
0.098362 0.157918 0.485202 0.186818 0.424441 0.885973
-0.343355 0.300608 -0.154440 -0.721006 0.552669 -0.417980
0.408782 0.409176 -0.020813 0.802911 0.564837 0.190507
-0.250946 0.211920 0.331745 -0.521177 0.534839 0.665073
-0.029848 0.150124 -0.505472 -0.053239 0.734870 -0.676116
0.298188 0.247868 0.248673 0.616085 0.547320 0.566463
-0.415547 0.420533 -0.001418 -0.789706 0.519528 0.326274
0.306025 0.254222 -0.234497 0.618268 0.537224 -0.573703
-0.040116 0.149421 0.504135 -0.047410 0.401617 0.914580
-0.244227 0.204789 -0.345212 -0.509260 0.538006 -0.671717
0.408958 0.403461 0.024770 0.741239 0.512352 0.433658
-0.352045 0.305654 0.141971 -0.700927 0.524538 0.483282
0.110036 0.155887 -0.480890 0.308067 0.657852 -0.687259
0.183306 0.174295 0.425064 0.355452 0.482393 0.800594
-0.389379 0.362575 -0.065999 -0.820230 0.562990 -0.101312
0.387119 0.357810 -0.071085 0.807202 0.575729 -0.130236
-0.178021 0.171300 0.431259 -0.327485 0.479616 0.814077
-0.117186 0.155501 -0.477724 -0.287487 0.657287 -0.696652
0.357625 0.308766 0.134197 0.695921 0.526774 0.488060
-0.409928 0.398647 0.027379 -0.754471 0.494605 0.431438
0.241797 0.198156 -0.353968 0.503728 0.536551 -0.677031
0.047488 0.145964 0.503459 0.086663 0.400952 0.911990
-0.314904 0.254307 -0.225533 -0.637970 0.528151 -0.560403
0.419728 0.416675 -0.003172 0.789402 0.519937 0.326359
-0.298940 0.237773 0.258063 -0.617623 0.537582 0.574063
0.024201 0.143691 -0.506978 0.088290 0.734105 -0.673272
0.262713 0.208326 0.323942 0.536907 0.531459 0.655197
-0.416293 0.406068 -0.017839 -0.822838 0.528263 0.209465
0.347203 0.287961 -0.162069 0.708378 0.543954 -0.449794
-0.096117 0.148311 0.489393 -0.150023 0.419266 0.895382
-0.202698 0.174861 -0.409421 -0.438982 0.564163 -0.699296
0.399865 0.369556 0.053389 0.735178 0.496053 0.462001
-0.384759 0.341442 0.084758 -0.728522 0.499592 0.468682
0.166178 0.161292 -0.446526 0.390200 0.598257 -0.699881
0.136536 0.153639 0.468789 0.238039 0.441305 0.865209
-0.371102 0.317130 -0.115144 -0.774186 0.548348 -0.316149
0.410305 0.386580 -0.034943 0.834395 0.544908 0.082823
-0.232034 0.185181 0.375281 -0.455326 0.511655 0.728620
-0.065913 0.142276 -0.500268 -0.173816 0.710104 -0.682305
0.331016 0.261411 0.202544 0.664973 0.528843 0.527386
-0.423061 0.411081 0.007740 -0.781099 0.487424 0.390259
0.291288 0.221880 -0.281904 0.576796 0.518561 -0.631190
-0.007384 0.138457 0.508608 -0.008659 0.393181 0.919421
-0.280881 0.212672 -0.301697 -0.557633 0.518871 -0.647934
0.422731 0.407265 0.011927 0.773893 0.483228 0.409367
-0.341777 0.270287 0.183492 -0.681040 0.521650 0.513873
0.081318 0.141349 -0.496363 0.217600 0.695311 -0.684977
0.222131 0.176160 0.392195 0.425616 0.501269 0.753379
-0.409451 0.375823 -0.042356 -0.842172 0.538356 0.030327
0.381751 0.324346 -0.100105 0.795421 0.544506 -0.266118
-0.153562 0.152045 0.460122 -0.263704 0.449413 0.853515
-0.156300 0.152361 -0.458325 -0.365489 0.611934 -0.701394
0.383743 0.325536 0.097467 0.727262 0.493114 0.477419
-0.409945 0.373092 0.043724 -0.748928 0.476226 0.460776
0.221615 0.173030 -0.395433 0.460849 0.547852 -0.698195
0.085057 0.139065 0.495861 0.129034 0.409631 0.903079
-0.346444 0.269097 -0.179995 -0.693477 0.524058 -0.494421
0.425573 0.403734 -0.012552 0.828189 0.499063 0.255028
-0.283057 0.206653 0.305711 -0.567673 0.527053 0.632426
-0.010328 0.133697 -0.509086 -0.037963 0.738144 -0.673575
0.298618 0.217817 0.278707 0.602204 0.527421 0.599315
-0.428285 0.406908 -0.006825 -0.815820 0.491275 0.305101
0.335779 0.252815 -0.206047 0.665681 0.514436 -0.540578
-0.065601 0.134966 0.501883 -0.104978 0.401131 0.909985
-0.241474 0.178222 -0.373450 -0.487933 0.532462 -0.691669
0.418131 0.381174 0.032840 0.763335 0.461332 0.452209
-0.378120 0.306729 0.117142 -0.718833 0.494891 0.488222
0.140113 0.143534 -0.472016 0.323566 0.634638 -0.701812
0.176355 0.151697 0.446266 0.300018 0.461801 0.834703
-0.395514 0.333804 -0.081310 -0.821056 0.537274 -0.192883
0.408883 0.358331 -0.053911 0.851083 0.523002 -0.046111
-0.210492 0.161720 0.414213 -0.386741 0.484406 0.784718
-0.104838 0.136341 -0.490178 -0.275982 0.670599 -0.688572
0.361119 0.277259 0.158170 0.706936 0.499988 0.500253
-0.427295 0.394658 0.017874 -0.772074 0.459879 0.438648
0.274220 0.192182 -0.329172 0.533539 0.513781 -0.671837
0.028906 0.129397 0.508449 0.029633 0.392213 0.919397
-0.315819 0.223736 -0.255235 -0.606498 0.506771 -0.612653
0.432977 0.404883 0.002299 0.809543 0.456168 0.369528
-0.329212 0.235711 0.229497 -0.650107 0.520138 0.553911
0.048938 0.129127 -0.506049 0.105275 0.725325 -0.680309
0.260597 0.181068 0.353291 0.501592 0.512841 0.696706
-0.425908 0.385411 -0.024740 -0.849178 0.503970 0.157836
0.373892 0.288801 -0.135830 0.763728 0.513431 -0.391290
-0.125777 0.135726 0.482222 -0.208286 0.423513 0.881620
-0.196571 0.151680 -0.432563 -0.424332 0.569663 -0.703866
0.406393 0.341742 0.066768 0.755593 0.455398 0.470841
-0.407149 0.342473 0.065660 -0.742558 0.465106 0.481959
0.198609 0.151251 -0.431448 0.409434 0.572735 -0.710168
0.125153 0.134122 0.483143 0.179245 0.424558 0.887481
-0.374987 0.285772 -0.137332 -0.751473 0.520223 -0.405779
0.428259 0.383911 -0.023967 0.862869 0.479915 0.158552
-0.264745 0.178534 0.351978 -0.506990 0.510957 0.694179
-0.048305 0.125546 -0.506709 -0.160472 0.720305 -0.674841
0.332391 0.230385 0.231570 0.661001 0.509855 0.550568
-0.436831 0.401105 0.001908 -0.804186 0.455015 0.382423
0.322071 0.219127 -0.253566 0.618665 0.495860 -0.609406
-0.031318 0.123798 0.508954 -0.064882 0.390306 0.918396
-0.279375 0.184713 -0.331869 -0.531383 0.508654 -0.677424
0.432794 0.388349 0.017908 0.793213 0.427250 0.433900
-0.369084 0.270768 0.156077 -0.702371 0.495521 0.511013
0.110501 0.128582 -0.490788 0.235943 0.675565 -0.698529
0.216809 0.152344 0.417194 0.373451 0.482171 0.792493
-0.416369 0.349144 -0.053885 -0.855394 0.515149 -0.054062
0.404777 0.325711 -0.079089 0.846422 0.499086 -0.185696
-0.185905 0.141609 0.447015 -0.321730 0.456137 0.829716
-0.145887 0.132430 -0.474668 -0.355039 0.625016 -0.695199
0.388004 0.294489 0.117718 0.742284 0.463346 0.484070
-0.428497 0.371592 0.031077 -0.763573 0.439192 0.473357
0.254588 0.165756 -0.373838 0.487277 0.523180 -0.699174
0.068458 0.122139 0.503853 0.071110 0.398313 0.914489
-0.348253 0.237702 -0.208013 -0.659475 0.499732 -0.561569
0.439874 0.395529 -0.006063 0.846970 0.432169 0.309631
-0.314342 0.203192 0.277948 -0.606710 0.516725 0.604068
0.012747 0.118950 -0.510688 -0.020839 0.738048 -0.674427
0.297690 0.189161 0.309380 0.577572 0.512164 0.635687
-0.438803 0.389819 -0.012162 -0.843499 0.463524 0.271395
0.363708 0.252832 -0.177736 0.718490 0.487439 -0.496161
-0.094243 0.122059 0.497796 -0.160933 0.403583 0.900678
-0.236934 0.153722 -0.400170 -0.469801 0.533817 -0.703083
0.425440 0.355803 0.042656 0.782508 0.415943 0.463328
-0.401793 0.308257 0.094268 -0.733604 0.461668 0.498687
0.172316 0.132767 -0.460841 0.344076 0.609030 -0.714629
0.166912 0.131293 0.464663 0.240520 0.444108 0.863086
-0.400139 0.303243 -0.099525 -0.808394 0.511490 -0.291337
0.428045 0.357834 -0.039433 0.886126 0.461896 0.037839
-0.243696 0.153872 0.394491 -0.440947 0.489170 0.752514
-0.089277 0.119180 -0.499838 -0.265556 0.685030 -0.678391
0.363338 0.245603 0.184871 0.710955 0.480135 0.513822
-0.442139 0.388147 0.010440 -0.791191 0.423320 0.441381
0.305998 0.188014 -0.302320 0.570205 0.490168 -0.659244
0.006749 0.114557 0.511319 -0.026448 0.386670 0.921839
-0.315436 0.194404 -0.286059 -0.574761 0.492052 -0.653861
0.443959 0.389679 0.007286 0.825600 0.395459 0.402488
-0.357769 0.235181 0.200607 -0.676426 0.499322 0.541410
0.076972 0.116114 -0.503345 0.126028 0.712081 -0.690694
0.256810 0.155844 0.381543 0.455996 0.497034 0.738258
-0.433610 0.361511 -0.033022 -0.872384 0.480691 0.088779
0.398224 0.290329 -0.111218 0.819177 0.475144 -0.321229
-0.157782 0.124689 0.472902 -0.264119 0.430077 0.863293
-0.188088 0.130740 -0.453044 -0.413091 0.580486 -0.701706
0.411374 0.311849 0.082908 0.772278 0.421700 0.475137
-0.426936 0.342800 0.049233 -0.755370 0.426958 0.497114
0.232008 0.142890 -0.413712 0.434533 0.546264 -0.716084
0.110658 0.116678 0.494596 0.119584 0.410906 0.903801
-0.377592 0.253981 -0.162442 -0.718328 0.494617 -0.489244
0.443658 0.378990 -0.015317 0.882800 0.411861 0.225908
-0.297005 0.173676 0.326352 -0.551851 0.508180 0.661222
-0.027123 0.110599 -0.510894 -0.145915 0.728351 -0.669487
0.332518 0.200415 0.262178 0.647423 0.496740 0.578008
-0.448287 0.387815 -0.003036 -0.829689 0.422258 0.365122
0.351262 0.217985 -0.224444 0.666801 0.470545 -0.577896
-0.058672 0.110706 0.507546 -0.119510 0.390324 0.912888
-0.276306 0.158732 -0.361409 -0.508187 0.505447 -0.697330
0.440892 0.366066 0.024879 0.809662 0.376874 0.449904
-0.394088 0.272148 0.129904 -0.719583 0.465298 0.515459
0.142245 0.117333 -0.483219 0.259212 0.652183 -0.712366
0.209274 0.130807 0.439744 0.314817 0.465245 0.827307
-0.421699 0.320110 -0.067969 -0.856989 0.492215 -0.152628
0.425203 0.326678 -0.060644 0.890169 0.444534 -0.099941
-0.219459 0.132800 0.431324 -0.375975 0.463890 0.802153
-0.132477 0.114647 -0.488037 -0.346825 0.640738 -0.684958
0.390973 0.262710 0.141008 0.751826 0.441091 0.490098
-0.444467 0.368130 0.020962 -0.778849 0.399189 0.483779
0.287316 0.160240 -0.349718 0.520088 0.497961 -0.693933
0.048306 0.107061 0.509430 0.013972 0.389989 0.920713
-0.348855 0.207153 -0.238035 -0.622636 0.481095 -0.617148
0.451816 0.384149 -0.000848 0.860254 0.367416 0.353509
-0.344171 0.201396 0.248959 -0.639041 0.502881 0.582011
0.039344 0.105794 -0.510511 -0.000058 0.733633 -0.679546
0.295302 0.162404 0.339917 0.541847 0.500534 0.675180
-0.447305 0.369281 -0.018076 -0.871669 0.436902 0.222058
0.389398 0.253930 -0.150236 0.774348 0.454721 -0.440016
-0.125654 0.110649 0.491856 -0.214703 0.408567 0.887117
-0.230324 0.131527 -0.424725 -0.455708 0.541132 -0.706757
0.431114 0.327818 0.054759 0.798719 0.377680 0.468407
-0.422875 0.309679 0.073793 -0.746137 0.423957 0.513362
0.205980 0.123576 -0.447199 0.370091 0.581553 -0.724451
0.154598 0.113110 0.480061 0.178807 0.428879 0.885489
-0.403454 0.271638 -0.120818 -0.781691 0.486736 -0.389933
0.444600 0.355679 -0.027632 0.911016 0.395428 0.116988
-0.276875 0.147742 0.372112 -0.489572 0.492884 0.719294
-0.070209 0.103937 -0.506914 -0.255054 0.698849 -0.668250
0.364381 0.214555 0.213948 0.707033 0.467259 0.530823
-0.454580 0.378639 0.004644 -0.812523 0.385215 0.437511
0.336470 0.185540 -0.273834 0.613240 0.465048 -0.638488
-0.019013 0.101344 0.512341 -0.080926 0.383901 0.919821
-0.313687 0.166864 -0.317259 -0.545331 0.484206 -0.684221
0.452872 0.370988 0.012425 0.838412 0.340123 0.425890
-0.384161 0.235883 0.172063 -0.697708 0.474025 0.537125
0.107972 0.104588 -0.498905 0.151944 0.694182 -0.703579
0.251095 0.132933 0.407980 0.401346 0.483039 0.778200
-0.439628 0.334760 -0.043274 -0.888581 0.458719 0.001120
0.419979 0.292025 -0.088759 0.870743 0.428310 -0.241574
-0.191500 0.115181 0.461266 -0.316936 0.438417 0.841036
-0.176877 0.112093 -0.470560 -0.405250 0.595153 -0.693950
0.415018 0.280598 0.102084 0.784809 0.395905 0.476795
-0.444094 0.341781 0.035563 -0.767759 0.384717 0.512385
0.265616 0.136199 -0.393259 0.465507 0.519097 -0.716827
0.092721 0.101228 0.503299 0.060280 0.399917 0.914567
-0.379041 0.222536 -0.190237 -0.678365 0.473246 -0.562014
0.456613 0.371287 -0.008634 0.895212 0.344370 0.282851
-0.328124 0.170521 0.298729 -0.590135 0.502242 0.632056
-0.002276 0.097323 -0.513118 -0.128344 0.733003 -0.668007
0.331365 0.172104 0.293675 0.623360 0.488622 0.610467
-0.457622 0.371045 -0.007706 -0.857599 0.389876 0.335441
0.378371 0.218198 -0.195185 0.719758 0.441369 -0.535856
-0.089175 0.099099 0.504483 -0.171998 0.392890 0.903357
-0.271451 0.135056 -0.389548 -0.489330 0.508578 -0.708452
0.447256 0.340728 0.033459 0.823609 0.333684 0.458611
-0.416536 0.273946 0.105569 -0.733602 0.429892 0.526328
0.175953 0.107571 -0.473505 0.287989 0.625625 -0.725021
0.199160 0.111628 0.459433 0.251802 0.449950 0.856820
-0.425660 0.289401 -0.084972 -0.843476 0.469928 -0.260222
0.442980 0.326615 -0.044967 0.923787 0.382666 -0.013574
-0.253467 0.125607 0.412922 -0.425871 0.471811 0.772029
-0.115712 0.098940 -0.498510 -0.339987 0.657373 -0.672510
0.392798 0.230990 0.167219 0.755149 0.426628 0.497734
-0.457950 0.362133 0.013102 -0.795519 0.356329 0.490082
0.319083 0.156417 -0.323299 0.558950 0.471892 -0.681830
0.024455 0.093710 0.512898 -0.041607 0.384262 0.922286
-0.348252 0.178099 -0.269443 -0.586418 0.468864 -0.660516
0.461586 0.369342 0.003669 0.869361 0.307467 0.386879
-0.372016 0.201048 0.219346 -0.665622 0.484399 0.567719
0.069260 0.094133 -0.508718 0.026100 0.724292 -0.688999
0.291264 0.137921 0.369519 0.495255 0.491186 0.716560
-0.454020 0.345517 -0.025207 -0.897997 0.412172 0.154001
0.412561 0.255672 -0.124193 0.830076 0.414999 -0.372492
-0.159281 0.100691 0.483945 -0.265791 0.415713 0.869792
-0.221293 0.111747 -0.446595 -0.445991 0.553170 -0.703630
0.435383 0.297849 0.069594 0.811875 0.347570 0.469099
-0.441292 0.310380 0.056019 -0.757169 0.381081 0.530539
0.240352 0.115946 -0.430917 0.401607 0.552715 -0.730218
0.139040 0.097088 0.492447 0.116528 0.415752 0.901982
-0.405626 0.239787 -0.145189 -0.743096 0.464540 -0.481676
0.458629 0.351261 -0.018326 0.926102 0.327253 0.187726
-0.309288 0.143279 0.347201 -0.532419 0.494414 0.687085
-0.047432 0.090487 -0.511703 -0.242835 0.710618 -0.660344
0.364281 0.184807 0.244874 0.694195 0.460791 0.552960
-0.464797 0.365804 -0.000046 -0.836596 0.346196 0.424566
0.365070 0.184581 -0.244250 0.661774 0.437520 -0.608796
-0.048244 0.089645 0.511736 -0.133232 0.383591 0.913842
-0.310419 0.141544 -0.348030 -0.520097 0.482863 -0.704515
0.459946 0.348940 0.018366 0.848803 0.291881 0.440840
-0.408061 0.237426 0.144545 -0.714933 0.443042 0.540911
0.141436 0.094487 -0.492660 0.183852 0.671765 -0.717586
0.243123 0.112485 0.431986 0.339475 0.469955 0.814800
-0.444199 0.305731 -0.056008 -0.892809 0.438315 -0.103792
0.439057 0.293300 -0.068856 0.914536 0.373326 -0.155728
-0.226192 0.107181 0.447112 -0.366258 0.447925 0.815609
-0.162548 0.095693 -0.484994 -0.400285 0.612054 -0.682027
0.417512 0.248779 0.124414 0.792699 0.378454 0.477912
-0.458686 0.338792 0.024571 -0.780434 0.338296 0.525813
0.298670 0.131138 -0.370115 0.502045 0.491286 -0.711751
0.071091 0.087644 0.509520 0.002338 0.391246 0.920283
-0.379400 0.192167 -0.220296 -0.635892 0.457358 -0.621663
0.467292 0.360399 -0.003445 0.901792 0.280563 0.328719
-0.357496 0.168922 0.269567 -0.622419 0.491946 0.608756
0.026167 0.085596 -0.513654 -0.105785 0.733363 -0.671557
0.328813 0.145930 0.325275 0.588177 0.484111 0.647830
-0.465063 0.350831 -0.012744 -0.887192 0.358894 0.289974
0.403036 0.219420 -0.166477 0.775406 0.407028 -0.482777
-0.122384 0.088901 0.499757 -0.221885 0.397734 0.890267
-0.264505 0.113875 -0.415587 -0.475539 0.517041 -0.711710
0.452127 0.312835 0.044214 0.835326 0.298766 0.461486
-0.436299 0.275607 0.083566 -0.745136 0.388365 0.542167
0.210912 0.099265 -0.461433 0.322266 0.596490 -0.735081
0.186072 0.094780 0.476029 0.186502 0.435907 0.880456
-0.428453 0.257794 -0.105120 -0.813704 0.449109 -0.369035
0.458156 0.324884 -0.032084 0.946103 0.316501 0.068669
-0.287150 0.119999 0.391748 -0.471058 0.478892 0.740788
-0.095299 0.085180 -0.506302 -0.333156 0.673365 -0.659989
0.393571 0.200093 0.196045 0.751432 0.419680 0.509134
-0.469108 0.353134 0.007093 -0.814267 0.311088 0.490096
0.349245 0.154168 -0.294942 0.603268 0.444429 -0.662231
-0.003096 0.081949 0.514565 -0.094979 0.380839 0.919750
-0.346361 0.151073 -0.301494 -0.553584 0.463069 -0.692179
0.469405 0.351051 0.008117 0.875624 0.254280 0.410638
-0.397473 0.201846 0.189783 -0.687425 0.460007 0.561997
0.102111 0.083874 -0.505367 0.058951 0.709702 -0.702031
0.285300 0.115949 0.397422 0.438739 0.482711 0.757956
-0.459192 0.318949 -0.034159 -0.918465 0.390127 0.064987
0.433036 0.257539 -0.100186 0.881913 0.367623 -0.295099
-0.194439 0.092145 0.473863 -0.313807 0.424634 0.849241
-0.209447 0.094380 -0.465432 -0.440491 0.568505 -0.694817
0.438460 0.266645 0.087485 0.821768 0.326155 0.467247
-0.457072 0.309726 0.041085 -0.767315 0.332720 0.548202
0.274645 0.109850 -0.411856 0.438248 0.522904 -0.731102
0.119902 0.083101 0.501967 0.055073 0.404463 0.912895
-0.406773 0.208480 -0.172454 -0.696957 0.446431 -0.561204
0.470283 0.344059 -0.011191 0.932987 0.260896 0.247929
-0.340256 0.140391 0.320016 -0.569635 0.492488 0.658005
-0.020878 0.078680 -0.514536 -0.226901 0.719260 -0.656643
0.362992 0.156948 0.276972 0.671446 0.459587 0.581326
-0.473008 0.349493 -0.004231 -0.863651 0.307266 0.399617
0.391350 0.184877 -0.214206 0.714494 0.406504 -0.569432
-0.080625 0.079354 0.509633 -0.182894 0.385515 0.904394
-0.305385 0.118730 -0.377566 -0.500274 0.487251 -0.715760
0.465423 0.323873 0.025738 0.857453 0.251898 0.448689
-0.429277 0.239333 0.118692 -0.728849 0.405191 0.551906
0.176715 0.085759 -0.484440 0.221895 0.645230 -0.731055
0.232508 0.094526 0.453099 0.272626 0.457133 0.846584
-0.447546 0.275132 -0.071632 -0.880352 0.419777 -0.220834
0.455465 0.293528 -0.051761 0.947652 0.311945 -0.068157
-0.261068 0.100661 0.430241 -0.411747 0.457855 0.787930
-0.144735 0.081420 -0.496405 -0.397167 0.629618 -0.667712
0.418996 0.217200 0.149835 0.795351 0.369283 0.480674
-0.470853 0.333268 0.016022 -0.794049 0.288013 0.535289
0.330456 0.127634 -0.344429 0.543626 0.462647 -0.700306
0.045638 0.075768 0.513595 -0.053429 0.384641 0.921518
-0.378656 0.163513 -0.252027 -0.594860 0.447502 -0.667745
0.475910 0.346090 0.000812 0.904400 0.222788 0.363903
-0.384631 0.168658 0.239441 -0.649489 0.475946 0.592991
0.057959 0.075290 -0.512699 -0.076376 0.728784 -0.680471
0.324652 0.122236 0.356152 0.541684 0.481493 0.689016
-0.470854 0.327421 -0.018796 -0.916554 0.330605 0.225008
0.425026 0.221216 -0.139003 0.830901 0.366411 -0.418744
-0.157692 0.080044 0.493246 -0.268816 0.404612 0.874086
-0.255093 0.095251 -0.438954 -0.467031 0.529611 -0.708092
0.455737 0.283047 0.057626 0.844920 0.272737 0.460136
-0.453361 0.276523 0.064258 -0.754705 0.340095 0.561030
0.246329 0.092387 -0.446767 0.361556 0.565406 -0.741345
0.169622 0.080156 0.489489 0.120827 0.422907 0.898082
-0.430243 0.226102 -0.128471 -0.769948 0.430955 -0.470592
0.470857 0.320891 -0.021861 0.957739 0.249582 0.142983
-0.319764 0.115918 0.367846 -0.511417 0.483937 0.710111
-0.071044 0.073202 -0.511732 -0.324524 0.687484 -0.649654
0.393316 0.170708 0.226999 0.739731 0.419440 0.526183
-0.478148 0.340815 0.002425 -0.835697 0.264333 0.481393
0.377268 0.153310 -0.265146 0.652200 0.414808 -0.634484
-0.034172 0.071639 0.514694 -0.145617 0.379522 0.913651
-0.343007 0.126471 -0.333368 -0.526050 0.463214 -0.713235
0.475519 0.329428 0.013142 0.880191 0.209160 0.426046
-0.420274 0.203402 0.160975 -0.705274 0.428335 0.564905
0.137342 0.074935 -0.500400 0.099130 0.689791 -0.717190
0.277056 0.096588 0.422957 0.373992 0.473900 0.797213
-0.463060 0.290177 -0.045474 -0.927375 0.371440 -0.044808
0.450781 0.258950 -0.078675 0.926100 0.312964 -0.210696
-0.230347 0.084973 0.461358 -0.358480 0.434859 0.826069
-0.194381 0.079333 -0.481079 -0.438552 0.585646 -0.681682
0.440526 0.235018 0.108603 0.828037 0.313518 0.464824
-0.470329 0.307097 0.028963 -0.777115 0.279004 0.564136
0.308087 0.105241 -0.389960 0.479420 0.492315 -0.726487
0.096937 0.070979 0.508899 -0.004442 0.394844 0.918737
-0.406951 0.178449 -0.202240 -0.648432 0.433478 -0.625806
0.479762 0.333683 -0.005778 0.933884 0.199234 0.296928
-0.369199 0.138923 0.290958 -0.601670 0.485678 0.634121
0.009353 0.068363 -0.515726 -0.205091 0.724009 -0.658596
0.360379 0.131430 0.309455 0.637862 0.462029 0.616167
-0.479457 0.329762 -0.008546 -0.893414 0.269817 0.359180
0.415000 0.186083 -0.184401 0.769557 0.370868 -0.519845
-0.115661 0.070371 0.506047 -0.229548 0.389509 0.891959
-0.298259 0.098568 -0.405118 -0.486483 0.496337 -0.719016
0.469550 0.296314 0.035127 0.864821 0.220848 0.450901
-0.447738 0.241055 0.095057 -0.739943 0.359495 0.568549
0.213045 0.078357 -0.473998 0.265555 0.615172 -0.742323
0.218832 0.078982 0.471038 0.203172 0.444240 0.872566
-0.449868 0.243762 -0.090422 -0.848971 0.403574 -0.341139
0.469301 0.292082 -0.037559 0.968872 0.247016 0.016450
-0.295329 0.095579 0.410513 -0.453224 0.467266 0.759111
-0.123141 0.069102 -0.505008 -0.394386 0.646480 -0.653087
0.419556 0.186630 0.178098 0.792016 0.367854 0.487231
-0.480790 0.324753 0.009543 -0.809242 0.234609 0.538596
0.360352 0.125562 -0.316499 0.589592 0.432769 -0.681977
0.016385 0.065432 0.515870 -0.106380 0.379944 0.918872
-0.376712 0.137088 -0.284701 -0.558279 0.443562 -0.701126
0.482707 0.328321 0.004752 0.904731 0.172626 0.389439
-0.409174 0.169429 0.209023 -0.672166 0.452740 0.585849
0.092668 0.066293 -0.510346 -0.038690 0.718767 -0.694173
0.318583 0.101215 0.385500 0.484383 0.478986 0.732083
-0.475243 0.301261 -0.026480 -0.941947 0.306453 0.137197
0.444240 0.223077 -0.113392 0.882838 0.318931 -0.344790
-0.194362 0.072471 0.484730 -0.312557 0.413260 0.855292
-0.242801 0.079133 -0.459244 -0.463533 0.544941 -0.698696
0.458297 0.252136 0.074062 0.852291 0.255782 0.456264
-0.467803 0.276067 0.047844 -0.762704 0.284942 0.580595
0.281392 0.086895 -0.429297 0.405078 0.532921 -0.742905
0.149465 0.067584 0.499944 0.056392 0.410885 0.909941
-0.431140 0.195126 -0.154901 -0.717395 0.416694 -0.558310
0.481270 0.314126 -0.014011 0.960637 0.185238 0.207037
-0.350639 0.113261 0.341397 -0.547092 0.485539 0.681867
-0.042899 0.062826 -0.515164 -0.311955 0.698868 -0.643636
0.391970 0.143405 0.259432 0.718961 0.424618 0.550267
-0.485309 0.325044 -0.001484 -0.860277 0.217336 0.461182
0.402749 0.153582 -0.234529 0.704608 0.382097 -0.597938
-0.068413 0.062646 0.513454 -0.193114 0.380188 0.904524
-0.337927 0.104544 -0.364226 -0.504960 0.468461 -0.724955
0.480178 0.304834 0.019381 0.883924 0.172873 0.434504
-0.440281 0.205245 0.133604 -0.719723 0.388060 0.575680
0.174252 0.067246 -0.493642 0.146452 0.664736 -0.732583
0.266122 0.079820 0.445601 0.303328 0.463935 0.832320
-0.465848 0.259933 -0.059599 -0.918516 0.356545 -0.170892
0.465858 0.259289 -0.059977 0.959686 0.252597 -0.123278
-0.266179 0.079135 0.446169 -0.399667 0.445768 0.800973
-0.175715 0.066442 -0.493564 -0.439028 0.603177 -0.665907
0.441719 0.203788 0.132949 0.830144 0.309315 0.463879
-0.481240 0.301943 0.019464 -0.787101 0.220571 0.576039
0.339966 0.102033 -0.365301 0.524443 0.460920 -0.715899
0.070025 0.060530 0.513601 -0.061150 0.386810 0.920130
-0.406135 0.150319 -0.233999 -0.602114 0.426068 -0.675223
0.487302 0.319910 -0.001551 0.931051 0.144304 0.335144
-0.395667 0.138655 0.260570 -0.629173 0.472375 0.617255
0.042974 0.059385 -0.515516 -0.175319 0.724252 -0.666875
0.356212 0.108561 0.341477 0.592798 0.466164 0.656720
-0.484395 0.306878 -0.013636 -0.924635 0.235629 0.299214
0.435847 0.187773 -0.155553 0.824526 0.329620 -0.459898
-0.152694 0.062612 0.500866 -0.272957 0.395431 0.877000
-0.288643 0.081075 -0.430054 -0.478832 0.508936 -0.715335
0.472559 0.266946 0.047046 0.871103 0.198998 0.448977
-0.463484 0.241994 0.074066 -0.748480 0.305412 0.588643
0.249599 0.072238 -0.461048 0.313821 0.582305 -0.749958
0.201693 0.065699 0.485717 0.133357 0.431228 0.892333
-0.451322 0.212449 -0.112498 -0.800725 0.390400 -0.454343
0.480733 0.288379 -0.026167 0.978809 0.181866 0.094110
-0.328228 0.091866 0.387888 -0.490693 0.474966 0.730498
-0.097577 0.058540 -0.511134 -0.390034 0.661617 -0.640419
0.419203 0.157749 0.208768 0.781766 0.373205 0.499559
-0.488728 0.312944 0.004652 -0.826656 0.179257 0.533392
0.387854 0.124732 -0.286771 0.639169 0.401021 -0.656235
-0.016459 0.056470 0.516654 -0.156028 0.377067 0.912949
-0.373376 0.113258 -0.317494 -0.528102 0.444948 -0.723277
0.487937 0.307262 0.009014 0.904136 0.131013 0.406661
-0.430910 0.170850 0.179036 -0.691116 0.420726 0.587663
0.129690 0.058502 -0.506559 0.007960 0.702927 -0.711218
0.310230 0.082925 0.412593 0.417639 0.475036 0.774544
-0.478471 0.272972 -0.036359 -0.957355 0.287821 0.025115
0.460691 0.224429 -0.090170 0.927687 0.264867 -0.263140
-0.231571 0.066133 0.473919 -0.353004 0.423329 0.834375
-0.227204 0.065384 -0.476247 -0.464294 0.561663 -0.684811
0.459985 0.220929 0.093754 0.857117 0.247700 0.451658
-0.479781 0.273637 0.034356 -0.769487 0.223375 0.598325
0.315316 0.082730 -0.408887 0.451942 0.499422 -0.739139
0.125355 0.056859 0.507672 -0.005529 0.399882 0.916550
-0.431187 0.165592 -0.184100 -0.662290 0.407151 -0.628967
0.489625 0.304212 -0.008122 0.957342 0.126109 0.259986
-0.379224 0.111870 0.312742 -0.578470 0.482060 0.658020
-0.010991 0.053868 -0.516953 -0.293140 0.706944 -0.643660
0.389383 0.118613 0.292567 0.687967 0.433505 0.582043
-0.490844 0.305894 -0.005259 -0.888186 0.171790 0.426161
0.425430 0.154642 -0.203794 0.758969 0.345297 -0.552029
-0.105274 0.054855 0.510893 -0.237201 0.382760 0.892878
-0.330770 0.085393 -0.393270 -0.490829 0.477784 -0.728567
0.483628 0.277818 0.027436 0.887363 0.145757 0.437427
-0.457481 0.206836 0.108283 -0.731011 0.338136 0.592695
0.212032 0.060747 -0.484826 0.199931 0.634980 -0.746209
0.252063 0.065525 0.465014 0.229397 0.452470 0.861770
-0.467748 0.229032 -0.076863 -0.887886 0.345616 -0.303659
0.478410 0.257944 -0.044242 0.981246 0.189114 -0.037323
-0.301121 0.074578 0.428080 -0.437367 0.456515 0.774793
-0.153146 0.055496 -0.503091 -0.440323 0.619904 -0.649488
0.442112 0.173722 0.160341 0.827368 0.312823 0.466480
-0.490030 0.293823 0.012257 -0.797853 0.158566 0.581625
0.369679 0.100096 -0.338098 0.572629 0.428458 -0.698941
0.039211 0.051558 0.516460 -0.114409 0.380340 0.917743
-0.404212 0.124584 -0.267027 -0.561331 0.423963 -0.710748
0.493158 0.302719 0.002089 0.926436 0.097374 0.363641
-0.419352 0.139285 0.229512 -0.652832 0.450789 0.608769
0.079510 0.051614 -0.514041 -0.135866 0.719375 -0.681204
0.350171 0.088495 0.372195 0.536192 0.469924 0.701191
-0.488074 0.281308 -0.020128 -0.954352 0.206817 0.215495
0.453845 0.189442 -0.128339 0.876431 0.282189 -0.390178
-0.190939 0.056005 0.493864 -0.313019 0.403112 0.859953
-0.276101 0.066155 -0.451906 -0.476960 0.523792 -0.705798
0.474656 0.236558 0.061911 0.876225 0.186260 0.444452
-0.476643 0.241540 0.055990 -0.754599 0.243071 0.609506
0.285537 0.067349 -0.445313 0.365437 0.547356 -0.752900
