ply
format ascii 1.0
comment Structured rock surface for Poisson reconstruction
element vertex 855
property float x
property float y
property float z
property float nx
property float ny
property float nz
end_header
0.187726 1.994058 0.318208 0.352737 0.920207 -0.169691
-0.284033 1.995537 -0.039769 0.133353 0.953786 -0.269276
0.229133 1.993335 -0.265489 0.344835 0.884820 -0.313340
-0.051701 1.990017 0.442168 0.283435 0.948765 -0.139675
-0.156338 1.990319 -0.383170 0.212929 0.909224 -0.357734
0.289312 1.992545 0.119518 0.358728 0.909249 -0.211140
-0.269561 1.991188 0.209339 0.147079 0.968636 -0.200278
0.105452 1.987215 -0.440572 0.322136 0.875473 -0.360243
0.115712 1.986522 0.439753 0.345143 0.929179 -0.132297
-0.283497 1.989206 -0.202559 0.133384 0.942199 -0.307360
0.303590 1.989028 -0.140453 0.355259 0.894170 -0.272490
-0.160583 1.984738 0.421524 0.225018 0.964378 -0.139073
-0.067124 1.982798 -0.484675 0.260876 0.888949 -0.376449
0.266204 1.985511 0.285804 0.365043 0.916460 -0.163842
-0.329164 1.986709 0.061123 0.102758 0.967439 -0.231306
0.214961 1.982580 -0.385052 0.346019 0.875620 -0.336986
0.012107 1.979280 0.515003 0.317172 0.942520 -0.105160
-0.237600 1.981510 -0.365979 0.164826 0.923141 -0.347338
0.344512 1.984084 0.026118 0.362400 0.905228 -0.221873
-0.266343 1.980677 0.332047 0.152930 0.975839 -0.156049
0.047617 1.976092 -0.528367 0.308709 0.872700 -0.378278
0.198371 1.977312 0.439637 0.365693 0.923179 -0.118357
-0.348270 1.981030 -0.118582 0.087830 0.957764 -0.273815
0.312414 1.978910 -0.264147 0.358116 0.885460 -0.296165
-0.110178 1.973322 0.523172 0.260616 0.960615 -0.096423
-0.149637 1.973068 -0.503255 0.220372 0.899139 -0.378135
0.339600 1.977478 0.213442 0.370137 0.913614 -0.168249
-0.350880 1.977110 0.183536 0.088098 0.978387 -0.187075
0.173566 1.971015 -0.498746 0.342983 0.867082 -0.361291
0.092843 1.968953 0.553410 0.349812 0.933413 -0.079826
-0.318255 1.973431 -0.307676 0.109916 0.939901 -0.323273
0.379586 1.975077 -0.092725 0.364139 0.899437 -0.241695
-0.235615 1.969150 0.455395 0.179209 0.977714 -0.109356
-0.029656 1.965145 -0.587032 0.282705 0.875977 -0.390822
0.284588 1.968973 0.397995 0.377278 0.918852 -0.115638
-0.396678 1.972613 -0.005634 0.051529 0.971681 -0.230608
0.294006 1.967638 -0.394362 0.360202 0.874569 -0.324627
-0.038119 1.961795 0.601669 0.303995 0.950904 -0.058046
-0.239502 1.964259 -0.480845 0.166048 0.914766 -0.368281
0.400756 1.969558 0.108838 0.370728 0.910798 -0.181682
-0.346305 1.966317 0.317664 0.093644 0.985811 -0.139308
0.108561 1.959013 -0.595728 0.332499 0.861879 -0.382896
0.184341 1.959498 0.552501 0.374574 0.924809 -0.066496
-0.391004 1.965826 -0.214098 0.055527 0.956688 -0.285772
0.390063 1.964961 -0.227841 0.366208 0.890618 -0.269615
-0.179621 1.956849 0.568639 0.222976 0.972863 -0.061801
-0.120751 1.954919 -0.609293 0.240727 0.886343 -0.395533
0.367265 1.961431 0.318427 0.380563 0.916595 -0.122583
-0.422959 1.963308 0.127684 0.031035 0.982861 -0.181716
0.249075 1.955277 -0.520923 0.360118 0.863079 -0.354132
0.050557 1.950744 0.647907 0.345917 0.937818 -0.028974
-0.330045 1.956490 -0.418503 0.102340 0.933300 -0.344206
0.442993 1.961097 -0.020006 0.370116 0.906332 -0.203901
-0.314511 1.954181 0.454127 0.121508 0.988599 -0.088930
0.024330 1.947162 -0.665705 0.309787 0.862885 -0.399326
0.280448 1.951213 0.510632 0.388239 0.919232 -0.065449
-0.448660 1.958118 -0.092448 0.009825 0.971305 -0.237634
0.373348 1.953360 -0.370631 0.369305 0.878368 -0.303454
-0.101929 1.944310 0.660990 0.276995 0.960722 -0.016937
-0.220035 1.945869 -0.590847 0.181934 0.902940 -0.389358
0.439106 1.954259 0.206932 0.378613 0.915250 -0.137732
-0.422949 1.952529 0.273351 0.031338 0.990996 -0.130172
0.180153 1.942248 -0.633204 0.354377 0.854031 -0.380852
0.150665 1.940747 0.655170 0.378435 0.925530 -0.013493
-0.414210 1.949537 -0.320514 0.037166 0.951664 -0.304885
0.460788 1.951353 -0.165386 0.370906 0.898446 -0.234996
-0.256730 1.940948 0.582990 0.170473 0.984696 -0.036243
-0.074334 1.936126 -0.699971 0.269874 0.871863 -0.408685
0.374589 1.944102 0.429866 0.391421 0.917187 -0.074545
-0.484666 1.949498 0.049746 -0.020093 0.982810 -0.183524
0.329156 1.940278 -0.512139 0.372239 0.863897 -0.339294
-0.006933 1.932236 0.722339 0.330886 0.943478 0.019094
-0.321519 1.938221 -0.531171 0.110033 0.923090 -0.368507
0.492921 1.946689 0.070769 0.375319 0.912794 -0.161066
-0.394704 1.939998 0.423368 0.055744 0.995503 -0.076596
0.091093 1.929242 -0.720390 0.337616 0.851054 -0.402148
0.256773 1.932232 0.620215 0.397338 0.917585 -0.012635
-0.484603 1.942775 -0.193468 -0.020282 0.967351 -0.252627
0.450538 1.939763 -0.319968 0.374212 0.886018 -0.273748
-0.176030 1.927225 0.693481 0.234300 0.972029 0.016236
-0.182423 1.926493 -0.692682 0.209941 0.888396 -0.408261
0.459573 1.937765 0.315508 0.387579 0.917306 -0.091278
-0.493899 1.939163 0.205381 -0.028912 0.991407 -0.127579
0.259441 1.926161 -0.642298 0.371759 0.850325 -0.372482
0.100648 1.921343 0.744573 0.374728 0.926272 0.039995
-0.418517 1.931841 -0.433608 0.033411 0.943290 -0.330285
0.522355 1.937774 -0.082847 0.373961 0.906993 -0.193695
-0.338747 1.925908 0.568804 0.105085 0.994265 -0.019838
-0.013603 1.917060 -0.772638 0.303469 0.856888 -0.416712
0.362850 1.925328 0.543867 0.402759 0.914999 -0.023727
-0.534039 1.935244 -0.044751 -0.062088 0.979265 -0.192836
0.411092 1.926193 -0.476009 0.379311 0.869485 -0.316417
-0.076609 1.913845 0.774732 0.301694 0.951397 0.061837
-0.294542 1.918639 -0.641845 0.132107 0.909736 -0.393608
0.527853 1.931364 0.174779 0.381372 0.917235 -0.115041
-0.473439 1.926615 0.367577 -0.012693 0.997396 -0.070997
0.167847 1.911803 -0.750045 0.362447 0.841996 -0.399594
0.215882 1.912210 0.722876 0.402557 0.914382 0.043051
-0.503592 1.926125 -0.304528 -0.037324 0.960507 -0.275740
0.522786 1.926682 -0.247321 0.376301 0.895966 -0.235885
-0.257798 1.910923 0.699222 0.175394 0.983698 0.039690
-0.129245 1.906447 -0.782558 0.246745 0.871944 -0.422883
0.461959 1.919734 0.430814 0.398309 0.916259 -0.042649
-0.556436 1.925875 0.118762 -0.082695 0.987879 -0.131362
0.343838 1.911060 -0.624319 0.383472 0.851597 -0.357395
0.036930 1.901684 0.817252 0.360086 0.928385 0.091861
-0.404477 1.912574 -0.549716 0.044652 0.931860 -0.360060
0.572282 1.923744 0.015100 0.377012 0.914376 -0.147576
-0.422998 1.911915 0.528592 0.031224 0.999444 -0.011666
0.058885 1.898162 -0.824483 0.337053 0.842857 -0.419508
0.333294 1.905138 0.656604 0.413420 0.910021 0.030739
-0.569032 1.920007 -0.151679 -0.092831 0.973179 -0.210488
0.492053 1.913039 -0.416061 0.382221 0.879064 -0.284874
-0.156044 1.896014 0.803207 0.255783 0.961942 0.096139
-0.250913 1.897950 -0.746473 0.166879 0.893687 -0.416503
0.546362 1.914620 0.288426 0.389432 0.918603 -0.067173
-0.547755 1.913857 0.290937 -0.078153 0.994406 -0.071058
0.252241 1.895250 -0.753942 0.381718 0.837162 -0.391729
0.159921 1.891492 0.814494 0.400790 0.910615 0.100738
-0.504947 1.907802 -0.422316 -0.040222 0.951067 -0.306355
0.587127 1.913747 -0.157070 0.377139 0.906255 -0.190966
-0.344835 1.895730 0.678762 0.102168 0.993366 0.052780
-0.062781 1.886158 -0.856594 0.288097 0.854618 -0.432006
0.446380 1.899993 0.549479 0.410603 0.911772 0.008834
-0.607786 1.912146 0.017634 -0.126963 0.981652 -0.142268
0.430772 1.897143 -0.581101 0.389634 0.858062 -0.334537
-0.038238 1.882237 0.869918 0.330955 0.933395 0.138715
-0.372959 1.891775 -0.665149 0.070797 0.917566 -0.391230
0.608205 1.908676 0.124810 0.381485 0.919088 -0.098728
-0.506662 1.898995 0.465308 -0.044915 0.998940 -0.010034
0.140966 1.879895 -0.853121 0.366654 0.831416 -0.417507
0.287399 1.883765 0.764005 0.421056 0.902616 0.089415
-0.587893 1.903240 -0.267886 -0.110951 0.965114 -0.237161
0.569012 1.900636 -0.336010 0.382372 0.891081 -0.244470
-0.243116 1.879166 0.806522 0.192024 0.974113 0.119295
-0.192510 1.876530 -0.840782 0.211446 0.875502 -0.434495
0.547453 1.896056 0.408787 0.400089 0.916303 -0.017803
-0.614554 1.901333 0.197442 -0.136101 0.987731 -0.076579
0.342058 1.879926 -0.732127 0.394325 0.837670 -0.377911
0.090942 1.870535 0.890941 0.388291 0.907900 0.157950
-0.488498 1.887616 -0.543769 -0.028106 0.939060 -0.342603
0.640605 1.900397 -0.053014 0.378263 0.914899 -0.140987
-0.434687 1.881862 0.633476 0.019474 0.998213 0.056502
0.014925 1.866119 -0.911196 0.329202 0.837784 -0.435596
0.413451 1.878591 0.668002 0.423203 0.903735 0.064512
-0.645369 1.897335 -0.094694 -0.159979 0.973799 -0.161625
0.517474 1.884450 -0.515207 0.391304 0.869089 -0.302598
-0.122891 1.863487 0.899848 0.284236 0.942359 0.176548
-0.325228 1.869702 -0.775887 0.110881 0.900638 -0.420186
0.628142 1.891970 0.243478 0.388490 0.920159 -0.048827
-0.586694 1.886968 0.382364 -0.116992 0.993044 -0.013317
0.230703 1.862702 -0.856947 0.389485 0.824242 -0.411007
0.226869 1.861613 0.861724 0.422280 0.893697 0.151611
-0.589401 1.884501 -0.390796 -0.115343 0.955161 -0.272697
0.638786 1.888574 -0.239619 0.381335 0.903408 -0.196057
-0.335768 1.863664 0.784355 0.111882 0.985177 0.130033
-0.121235 1.854868 -0.920480 0.261532 0.855973 -0.445995
0.530741 1.875466 0.533108 0.413185 0.910014 0.033962
-0.670748 1.888441 0.090688 -0.183782 0.978978 -0.088464
0.434966 1.866071 -0.685631 0.400551 0.844014 -0.356651
0.010848 1.849860 0.948400 0.361213 0.908363 0.210718
-0.454672 1.865623 -0.665604 -0.000413 0.924467 -0.381263
0.680478 1.885937 0.061764 0.381060 0.920308 -0.088466
-0.524656 1.869378 0.565645 -0.065559 0.996429 0.053211
0.102052 1.846837 -0.943382 0.365549 0.823156 -0.434497
0.364289 1.855808 0.782461 0.433656 0.892294 0.125516
-0.667023 1.880783 -0.215687 -0.180749 0.964859 -0.190726
0.600905 1.872809 -0.429850 0.390024 0.883116 -0.260743
-0.215243 1.845897 0.905150 0.218068 0.954862 0.201704
-0.262872 1.846793 -0.877558 0.162543 0.881410 -0.443505
0.630687 1.873134 0.368836 0.398684 0.917087 0.001553
-0.659861 1.875412 0.283391 -0.180211 0.983406 -0.020885
0.326192 1.846970 -0.835341 0.404368 0.822750 -0.399460
0.153513 1.839208 0.945347 0.413093 0.885008 0.214744
-0.572996 1.863558 -0.517956 -0.104867 0.943108 -0.315516
0.698190 1.876216 -0.130374 0.380629 0.913795 -0.141774
-0.431797 1.849774 0.737451 0.020344 0.991402 0.129259
-0.038903 1.833511 -0.981572 0.311848 0.836280 -0.450984
0.496508 1.852904 0.658342 0.427547 0.899506 0.089960
-0.713461 1.874430 -0.026379 -0.219989 0.969454 -0.108459
0.528348 1.853765 -0.616504 0.401686 0.855798 -0.325973
-0.078646 1.829994 0.983683 0.316104 0.914009 0.254294
-0.404473 1.842125 -0.784022 0.042693 0.907379 -0.418139
0.704430 1.869643 0.184929 0.386672 0.921528 -0.035640
-0.611725 1.858120 0.478334 -0.145557 0.988303 0.045510
0.196941 1.828794 -0.951028 0.393845 0.812622 -0.429571
0.300403 1.832116 0.888481 0.438386 0.878122 0.191624
-0.671183 1.861941 -0.343345 -0.188375 0.954768 -0.230073
0.677797 1.861792 -0.328592 0.387437 0.897799 -0.209403
-0.313525 1.829876 0.884950 0.133041 0.968180 0.211961
-0.187645 1.823606 -0.965648 0.221654 0.860372 -0.458945
0.615131 1.851902 0.498724 0.412063 0.909593 0.053330
-0.722892 1.863659 0.171843 -0.232064 0.972122 -0.033551
0.425351 1.832990 -0.788795 0.411711 0.827782 -0.381145
0.069093 1.817124 1.010726 0.389491 0.879193 0.274438
-0.538832 1.840460 -0.646569 -0.078396 0.928732 -0.362367
0.744228 1.862754 -0.011161 0.381636 0.920427 -0.084666
-0.528674 1.837605 0.667657 -0.074483 0.989974 0.120019
0.052842 1.813011 -1.020685 0.357062 0.818101 -0.450796
0.445662 1.828694 0.780838 0.440755 0.884654 0.152061
-0.740237 1.858505 -0.151567 -0.244287 0.959758 -0.138521
0.619222 1.842873 -0.527696 0.399501 0.871554 -0.284241
-0.175979 1.811442 0.994454 0.250427 0.925510 0.284109
-0.339353 1.817632 -0.894671 0.099669 0.887991 -0.448930
0.710745 1.850899 0.314716 0.395874 0.918158 0.016415
-0.692604 1.847662 0.375082 -0.215135 0.975960 0.034904
0.297947 1.812422 -0.933026 0.412635 0.807922 -0.420706
0.223519 1.808115 0.981468 0.433166 0.862882 0.260389
-0.656998 1.840500 -0.475795 -0.181640 0.943056 -0.278662
0.744807 1.850705 -0.214913 0.385072 0.910498 -0.150710
-0.415782 1.815742 0.839505 0.033665 0.977632 0.207610
-0.101289 1.800752 -1.035864 0.282474 0.838366 -0.466209
0.581508 1.828313 0.630613 0.427656 0.897377 0.108745
-0.772682 1.850844 0.050608 -0.271930 0.960836 -0.053366
0.525749 1.820901 -0.718962 0.413083 0.839299 -0.353468
-0.024787 1.795939 1.054313 0.347908 0.879263 0.325357
-0.487734 1.815549 -0.773160 -0.035242 0.912040 -0.408584
0.774309 1.847317 0.115912 0.385543 0.922273 -0.027744
-0.623461 1.827045 0.577817 -0.163771 0.980758 0.106271
0.152518 1.793890 -1.035292 0.393030 0.803495 -0.447128
0.379613 1.803382 0.896290 0.449118 0.865758 0.220806
-0.749217 1.839976 -0.283303 -0.256197 0.949719 -0.179992
0.704288 1.832978 -0.422744 0.395779 0.888777 -0.231161
-0.279618 1.794653 0.979392 0.163570 0.940838 0.296765
-0.261030 1.792781 -0.992883 0.166940 0.866523 -0.470392
0.698436 1.829342 0.449525 0.408860 0.910033 0.068369
-0.763884 1.837292 0.259435 -0.271850 0.962110 0.021006
0.403236 1.798065 -0.889402 0.422354 0.810303 -0.406234
0.135380 1.784446 1.056981 0.413855 0.849521 0.327167
-0.624383 1.816477 -0.610790 -0.158995 0.929244 -0.333506
0.798723 1.838630 -0.091759 0.384294 0.918986 -0.088224
-0.519684 1.803670 0.770265 -0.071301 0.978802 0.191999
-0.005391 1.778831 -1.084487 0.338640 0.816851 -0.466987
0.530557 1.802723 0.761233 0.443206 0.880059 0.170482
-0.806508 1.836016 -0.078232 -0.300078 0.950301 -0.082948
0.624505 1.810629 -0.628572 0.410582 0.856111 -0.313841
-0.126700 1.776193 1.073397 0.285418 0.887317 0.362221
-0.421071 1.789410 -0.893497 0.024128 0.893237 -0.448938
0.786434 1.829129 0.249423 0.393245 0.919034 0.027121
-0.712857 1.817703 0.471474 -0.241006 0.966253 0.090951
0.258687 1.776619 -1.023862 0.417713 0.794543 -0.440700
0.300078 1.777652 0.999968 0.448154 0.844161 0.294194
-0.739274 1.818411 -0.420247 -0.254642 0.938611 -0.232736
0.780076 1.823360 -0.305293 0.392072 0.904364 -0.168539
-0.387849 1.780000 0.938289 0.058713 0.954842 0.291254
-0.171266 1.768256 -1.074074 0.238654 0.843348 -0.481465
0.667295 1.804960 0.587406 0.424942 0.896873 0.122646
-0.822252 1.826042 0.134450 -0.315652 0.948874 0.001651
0.510589 1.785935 -0.821392 0.424864 0.820201 -0.383094
0.037583 1.761740 1.111130 0.376942 0.841910 0.386138
-0.573991 1.790240 -0.745295 -0.118959 0.913223 -0.389708
0.836694 1.824535 0.038756 0.386315 0.922003 -0.025895
-0.622420 1.793624 0.679831 -0.171227 0.970353 0.170578
0.098651 1.758402 -1.108626 0.384746 0.797937 -0.463968
0.463610 1.775753 0.886449 0.455024 0.857489 0.240136
-0.822229 1.818307 -0.213362 -0.316649 0.940324 -0.124596
0.718327 1.801809 -0.521170 0.406236 0.875730 -0.260900
-0.235290 1.758373 1.066246 0.200266 0.902805 0.380573
-0.340567 1.762774 -1.002799 0.097203 0.872459 -0.478923
0.779331 1.807681 0.388274 0.405157 0.910739 0.080018
-0.793343 1.808855 0.352390 -0.303459 0.949920 0.074599
0.369754 1.761593 -0.985960 0.431382 0.792939 -0.430300
0.208857 1.752230 1.087141 0.433502 0.822819 0.367485
-0.710072 1.793759 -0.560756 -0.237846 0.925608 -0.294414
0.843178 1.813009 -0.178553 0.389701 0.915467 -0.100270
-0.498571 1.767731 0.872157 -0.055638 0.961169 0.270293
-0.071690 1.744715 -1.134171 0.307434 0.819422 -0.483769
0.617881 1.778121 0.725589 0.442157 0.878138 0.182677
-0.864730 1.812800 0.002329 -0.347612 0.937268 -0.026373
0.617276 1.776042 -0.731449 0.422704 0.836908 -0.347717
-0.068485 1.740573 1.140842 0.319524 0.843611 0.431538
-0.507106 1.762446 -0.875310 -0.060845 0.895330 -0.441227
0.856433 1.807449 0.175373 0.392138 0.919303 0.033314
-0.720717 1.785279 0.571735 -0.257733 0.954758 0.148362
0.209551 1.739969 -1.106354 0.417726 0.784031 -0.459130
0.382397 1.748188 1.001456 0.458368 0.830473 0.316565
-0.818425 1.797114 -0.353897 -0.320950 0.929969 -0.179304
0.803652 1.793731 -0.400645 0.401668 0.894643 -0.195643
-0.349074 1.742898 1.032197 0.093627 0.921175 0.377718
-0.248066 1.736415 -1.096190 0.178696 0.849639 -0.496167
0.752530 1.782865 0.531131 0.420909 0.897266 0.133227
-0.861415 1.799462 0.223967 -0.351535 0.934543 0.055241
0.483740 1.749100 -0.922354 0.436143 0.799660 -0.412703
0.107624 1.727808 1.153548 0.401717 0.806180 0.434393
-0.662067 1.766380 -0.702359 -0.203698 0.910343 -0.360254
0.890484 1.800733 -0.044869 0.389852 0.920345 -0.031312
-0.609146 1.757906 0.783265 -0.167171 0.956182 0.240354
0.036301 1.722758 -1.169917 0.366211 0.796638 -0.480893
0.551425 1.749519 0.860250 0.456972 0.853240 0.251313
-0.888880 1.796484 -0.135674 -0.368681 0.927185 -0.066356
0.720055 1.768109 -0.623060 0.418303 0.858247 -0.297379
-0.181585 1.721464 1.143998 0.239195 0.856017 0.458281
-0.425463 1.733935 -0.996028 0.014283 0.875936 -0.482217
0.856367 1.786662 0.317388 0.402390 0.911176 0.088545
-0.810978 1.777951 0.449985 -0.327184 0.936313 0.127548
0.325930 1.723970 -1.076782 0.437351 0.777304 -0.452242
0.288810 1.720856 1.101235 0.448513 0.801637 0.395240
-0.794482 1.772257 -0.498814 -0.311215 0.918004 -0.245793
0.876886 1.785335 -0.270614 0.398116 0.909202 -0.121887
-0.466201 1.730091 0.971767 -0.027678 0.934642 0.354510
-0.145307 1.711066 -1.169208 0.260677 0.824948 -0.501506
0.706373 1.755024 0.675853 0.438932 0.878055 0.190677
-0.913833 1.788256 0.088741 -0.387156 0.921551 0.029216
0.598110 1.739250 -0.835105 0.435066 0.814648 -0.383493
-0.002188 1.705007 1.195733 0.350229 0.799047 0.488736
-0.596422 1.736999 -0.841448 -0.150474 0.893242 -0.423646
0.919407 1.785338 0.094452 0.393600 0.918653 0.034000
-0.716379 1.750304 0.675028 -0.264802 0.941381 0.209001
0.151495 1.702912 -1.179003 0.410286 0.777617 -0.476422
0.469654 1.720052 0.986615 0.464478 0.822300 0.328760
-0.892972 1.776266 -0.278992 -0.378803 0.917587 -0.120592
0.815310 1.761489 -0.500339 0.413475 0.880538 -0.231711
-0.300432 1.704867 1.119492 0.135114 0.876386 0.462267
-0.331003 1.705596 -1.102298 0.102524 0.854869 -0.508613
0.835732 1.761906 0.464078 0.417030 0.897806 0.141526
-0.889528 1.770572 0.318434 -0.380169 0.918723 0.106867
0.446063 1.710761 -1.020166 0.445811 0.779306 -0.440381
0.184665 1.694535 1.181109 0.421911 0.775657 0.469412
-0.750616 1.744049 -0.646323 -0.284908 0.903602 -0.319890
0.934664 1.775288 -0.133855 0.396658 0.916840 -0.045468
-0.584252 1.720116 0.886771 -0.150699 0.936367 0.317029
-0.033777 1.687372 -1.218189 0.334275 0.799591 -0.498914
0.641941 1.724906 0.819096 0.456032 0.852201 0.256492
-0.947860 1.773926 -0.051863 -0.412235 0.911045 -0.007704
0.709735 1.731885 -0.727505 0.431188 0.836366 -0.338480
-0.119373 1.684369 1.211203 0.276667 0.804736 0.525220
-0.514849 1.706574 -0.973326 -0.077744 0.875175 -0.477518
0.928055 1.765859 0.238931 0.401769 0.910958 0.093472
-0.816645 1.744330 0.551633 -0.343013 0.921711 0.181085
0.272687 1.685648 -1.160113 0.438401 0.765031 -0.471733
0.374557 1.690677 1.099416 0.459462 0.787273 0.411212
-0.876084 1.751770 -0.427183 -0.376502 0.906881 -0.189243
0.899286 1.755123 -0.367380 0.409376 0.899315 -0.153770
-0.423430 1.691166 1.067316 0.011112 0.897062 0.441764
-0.225626 1.678260 -1.189222 0.196418 0.831491 -0.519657
0.794606 1.733446 0.614026 0.434939 0.878805 0.196291
-0.952873 1.761754 0.180144 -0.419434 0.904032 0.082466
0.567661 1.700555 -0.938053 0.446728 0.790701 -0.418601
0.071522 1.669899 1.237193 0.376399 0.758250 0.532335
-0.687815 1.713255 -0.793396 -0.239480 0.887014 -0.394785
0.974092 1.762162 0.008030 0.398369 0.916807 0.027687
-0.700177 1.712882 0.780340 -0.261195 0.925258 0.275089
0.085303 1.665886 -1.240445 0.392462 0.776070 -0.493649
0.560916 1.693532 0.956288 0.467322 0.819116 0.332655
-0.961436 1.755364 -0.197399 -0.427597 0.902031 -0.059174
0.814993 1.726474 -0.603781 0.426731 0.861411 -0.275448
-0.242791 1.666371 1.198434 0.178911 0.822984 0.539155
-0.419374 1.676136 -1.092634 0.012514 0.856470 -0.516046
0.915339 1.741798 0.388378 0.414642 0.897894 0.147846
-0.906122 1.738949 0.417408 -0.402032 0.902086 0.156881
0.398405 1.671371 -1.112977 0.452500 0.761031 -0.464839
0.268119 1.662283 1.193528 0.437984 0.752646 0.491625
-0.838144 1.723194 -0.579216 -0.359049 0.893625 -0.269292
0.968371 1.747582 -0.227560 0.406856 0.910820 -0.069823
-0.548426 1.680625 0.988723 -0.121322 0.908276 0.400393
-0.110982 1.652635 -1.252669 0.285803 0.805763 -0.518712
0.733866 1.702052 0.764562 0.453414 0.853146 0.257987
-0.997967 1.749958 0.036953 -0.447961 0.892693 0.049293
0.687768 1.693335 -0.833360 0.443938 0.810844 -0.381380
-0.049358 1.647515 1.266594 0.310197 0.754322 0.578599
-0.607711 1.680952 -0.935639 -0.173261 0.869583 -0.462392
0.992941 1.744696 0.154563 0.404237 0.909849 0.093636
-0.810376 1.707932 0.656686 -0.350419 0.906056 0.237210
0.210835 1.647093 -1.234261 0.432154 0.757502 -0.489320
0.465350 1.662012 1.082012 0.467109 0.779798 0.416802
-0.953300 1.731926 -0.347891 -0.432364 0.892704 -0.127047
0.910007 1.722024 -0.468476 0.422871 0.884775 -0.195841
-0.371088 1.651437 1.156910 0.057495 0.848123 0.526670
-0.312070 1.646645 -1.194018 0.114592 0.836191 -0.536334
0.881027 1.713262 0.542146 0.431563 0.879459 0.200763
-0.981079 1.732709 0.276075 -0.445289 0.885483 0.132804
0.526642 1.660388 -1.038542 0.456640 0.767000 -0.450767
0.152097 1.635622 1.264554 0.398096 0.724703 0.562428
-0.779904 1.691297 -0.732819 -0.323257 0.877499 -0.354259
1.019361 1.737225 -0.083019 0.406856 0.913406 0.012574
-0.672577 1.673298 0.886373 -0.245539 0.904597 0.348446
0.011606 1.629303 -1.289531 0.360859 0.779378 -0.512201
0.655078 1.668856 0.911536 0.467848 0.819662 0.330565
-1.022407 1.733763 -0.110559 -0.467660 0.883905 0.002389
0.802824 1.688729 -0.710231 0.440392 0.837132 -0.324446
-0.176900 1.627870 1.267412 0.220968 0.765993 0.603679
-0.512369 1.648339 -1.067626 -0.086356 0.852666 -0.515270
0.989774 1.722081 0.305930 0.414864 0.897153 0.151670
-0.910926 1.704335 0.520537 -0.417232 0.885027 0.206509
0.341571 1.631427 -1.198882 0.454464 0.746703 -0.485692
0.357398 1.631386 1.190699 0.450747 0.738063 0.502086
-0.923052 1.703606 -0.503064 -0.423914 0.881016 -0.210019
0.990934 1.717081 -0.325668 0.420137 0.901309 -0.105484
-0.502402 1.639913 1.087262 -0.079854 0.869456 0.487513
-0.194805 1.618902 -1.272798 0.218482 0.812851 -0.539944
0.825735 1.680981 0.698403 0.450411 0.854758 0.257912
-1.038161 1.723879 0.130124 -0.476880 0.872891 0.103183
0.654681 1.652829 -0.939168 0.455575 0.783273 -0.423007
0.027896 1.611295 1.309151 0.338850 0.709578 0.617802
-0.702848 1.657261 -0.884152 -0.266513 0.859918 -0.435330
1.049679 1.722470 0.065495 0.410455 0.907691 0.087313
-0.792381 1.668905 0.764279 -0.348247 0.888649 0.298374
0.141058 1.608753 -1.297721 0.415619 0.755573 -0.506330
0.560301 1.635147 1.049566 0.472242 0.778264 0.413874
-1.024574 1.712178 -0.262680 -0.478571 0.875866 -0.061877
0.908880 1.685884 -0.573531 0.437563 0.864639 -0.246857
-0.309944 1.611403 1.238670 0.106861 0.790614 0.602918
-0.404014 1.616543 -1.183587 0.018071 0.836042 -0.548368
0.964013 1.694173 0.462209 0.430055 0.879331 0.204525
-0.997886 1.700655 0.376326 -0.465381 0.866510 0.180504
0.475800 1.619266 -1.134629 0.463587 0.745764 -0.478460
0.239046 1.602516 1.277362 0.416102 0.700348 0.579976
-0.871155 1.671084 -0.661552 -0.398584 0.865753 -0.302660
1.054269 1.709839 -0.178246 0.419110 0.907840 -0.013207
-0.634160 1.631995 0.991513 -0.216619 0.876782 0.429336
-0.069091 1.593534 -1.325366 0.311967 0.786377 -0.533187
0.750840 1.646175 0.853675 0.467098 0.822297 0.325034
-1.074614 1.710717 -0.019450 -0.499955 0.863839 0.061869
0.779099 1.648508 -0.818669 0.453321 0.808449 -0.375380
-0.103374 1.589792 1.325042 0.258591 0.711276 0.653618
-0.609005 1.622464 -1.027941 -0.187561 0.843334 -0.503596
1.057521 1.702126 0.218299 0.418565 0.895425 0.151714
-0.903877 1.666687 0.627383 -0.425297 0.867570 0.257770
0.276288 1.591424 -1.276063 0.449426 0.737866 -0.503558
0.451820 1.602152 1.172713 0.461064 0.731607 0.502166
-1.003708 1.684895 -0.419804 -0.478546 0.866120 -0.144327
1.001898 1.683404 -0.428033 0.435686 0.887042 -0.152756
-0.446925 1.598516 1.180392 -0.029196 0.819289 0.572637
-0.284754 1.586500 -1.278219 0.132115 0.817440 -0.560657
0.915956 1.661574 0.622511 0.448301 0.855896 0.257815
-1.067599 1.695034 0.227379 -0.500059 0.852321 0.153264
0.611099 1.610868 -1.043163 0.465151 0.755939 -0.460641
0.111929 1.576060 1.338103 0.362957 0.673738 0.643692
-0.798865 1.635601 -0.820312 -0.352953 0.847748 -0.395913
1.097080 1.698406 -0.027525 0.420789 0.904265 0.072399
-0.763036 1.627599 0.873217 -0.334784 0.867960 0.366830
0.063908 1.571032 -1.349246 0.385226 0.759247 -0.524542
0.658326 1.610315 1.002878 0.475651 0.780997 0.404723
-1.088444 1.691824 -0.172919 -0.515743 0.856736 0.003527
0.895940 1.646775 -0.681999 0.452104 0.838498 -0.304176
-0.240677 1.571546 1.310868 0.154593 0.730029 0.665701
-0.500704 1.588247 -1.158123 -0.087224 0.829191 -0.552118
1.041937 1.675696 0.376056 0.431461 0.878040 0.207092
-1.002947 1.665314 0.480769 -0.479953 0.847502 0.226685
0.415866 1.577731 -1.224302 0.466028 0.729128 -0.501188
0.331857 1.570892 1.275352 0.431467 0.685720 0.586195
-0.959929 1.652411 -0.581522 -0.463698 0.852475 -0.241392
1.078082 1.679404 -0.277528 0.434723 0.899104 -0.051259
-0.585584 1.589521 1.093862 -0.174365 0.839138 0.515213
-0.156356 1.558911 -1.347298 0.243020 0.794429 -0.556618
0.846721 1.625532 0.784281 0.466199 0.825353 0.318515
-1.116960 1.685441 0.075402 -0.525747 0.842470 0.117619
0.744262 1.606247 -0.927716 0.464486 0.777174 -0.424563
-0.022711 1.552516 1.370223 0.290846 0.663679 0.689158
-0.708095 1.598719 -0.974525 -0.284878 0.830026 -0.479480
1.117183 1.681166 0.126641 0.426357 0.892684 0.146065
-0.885104 1.626193 0.737259 -0.425056 0.849237 0.313246
0.203179 1.551820 -1.342908 0.434433 0.735461 -0.519967
0.550542 1.574860 1.139879 0.469700 0.732007 0.493505
-1.078508 1.666485 -0.331152 -0.522988 0.849038 -0.074952
1.001025 1.646388 -0.534502 0.452168 0.866710 -0.210614
-0.382705 1.556976 1.266121 0.025816 0.760415 0.648924
-0.380272 1.555728 -1.268758 0.029946 0.815962 -0.577329
1.002864 1.643538 0.538824 0.448251 0.855756 0.258364
-1.085661 1.662902 0.328705 -0.518334 0.831547 0.199647
0.557702 1.568032 -1.143344 0.471676 0.731449 -0.492448
0.202321 1.542124 1.352902 0.383567 0.648339 0.657673
-0.894204 1.615952 -0.745814 -0.429803 0.834577 -0.344602
1.134150 1.671734 -0.124177 0.435262 0.899096 0.046620
-0.722849 1.584527 0.981937 -0.308180 0.841612 0.443525
-0.020170 1.534283 -1.387877 0.337119 0.767279 -0.545558
0.758132 1.587687 0.943049 0.478160 0.785938 0.392001
-1.143590 1.670043 -0.079537 -0.545065 0.835737 0.066685
0.871412 1.604998 -0.793021 0.465099 0.806997 -0.363921
-0.163853 1.532294 1.372030 0.197506 0.672565 0.713196
-0.601195 1.562019 -1.118063 -0.193766 0.815972 -0.544651
1.113238 1.657165 0.285251 0.436587 0.875497 0.207113
-0.996133 1.626645 0.589184 -0.488644 0.828582 0.273275
0.347520 1.536312 -1.305626 0.461884 0.718814 -0.519586
0.429907 1.541043 1.258443 0.445209 0.680240 0.582291
-1.044554 1.634889 -0.494644 -0.517994 0.837799 -0.172555
1.090292 1.645494 -0.380921 0.452715 0.885753 -0.102426
-0.527538 1.546473 1.191345 -0.120962 0.790525 0.600365
-0.249764 1.525732 -1.354876 0.153503 0.799545 -0.580658
0.941102 1.606831 0.705149 0.466288 0.827426 0.312955
-1.148561 1.657202 0.173860 -0.546303 0.820417 0.168724
0.698875 1.562521 -1.035631 0.473066 0.745998 -0.468717
0.064688 1.516369 1.402129 0.318200 0.626146 0.711822
-0.808243 1.577225 -0.908638 -0.373908 0.815087 -0.442521
1.167532 1.658346 0.031654 0.438595 0.888885 0.132355
-0.854916 1.583260 0.849112 -0.414642 0.828868 0.375566
0.122753 1.513011 -1.398097 0.405823 0.739526 -0.537038
0.652509 1.549752 1.092775 0.477306 0.737261 0.478148
-1.145952 1.647626 -0.238487 -0.558028 0.829808 -0.004837
0.988288 1.606121 -0.644743 0.467857 0.839503 -0.276306
-0.310382 1.515795 1.342610 0.079865 0.698422 0.711216
-0.480656 1.526868 -1.244430 -0.081158 0.806340 -0.585857
1.084796 1.626384 0.449196 0.451232 0.853937 0.259195
-1.091947 1.627164 0.434182 -0.532097 0.810983 0.243268
0.495177 1.524919 -1.237602 0.473903 0.712257 -0.517790
0.298619 1.509771 1.353189 0.401978 0.633580 0.661052
-0.987201 1.598131 -0.662528 -0.495818 0.821185 -0.282523
1.160118 1.641777 -0.224478 0.453436 0.891254 0.007835
-0.672423 1.540311 1.088534 -0.267389 0.806879 0.526736
-0.110798 1.498808 -1.412913 0.268028 0.776771 -0.569901
0.858228 1.567332 0.871497 0.480661 0.791028 0.378471
-1.188886 1.645968 0.016992 -0.567994 0.813383 0.125662
0.835679 1.561058 -0.905336 0.475413 0.772128 -0.421664
-0.079927 1.494011 1.420994 0.234417 0.623086 0.746199
-0.704318 1.538080 -1.064137 -0.294820 0.798768 -0.524453
1.176487 1.637753 0.190967 0.446017 0.871809 0.202529
-0.977516 1.584867 0.701086 -0.490364 0.809506 0.322867
0.271354 1.495477 -1.376887 0.448330 0.715855 -0.535305
0.532398 1.513237 1.226753 0.458166 0.682447 0.569517
-1.123394 1.617929 -0.402674 -0.561678 0.821430 -0.098844
1.090611 1.607916 -0.488485 0.471450 0.866104 -0.166130
-0.460698 1.503438 1.281861 -0.061141 0.732974 0.677503
-0.348812 1.494272 -1.347819 0.046831 0.797464 -0.601546
1.032288 1.589798 0.618195 0.468421 0.827563 0.309388
-1.168758 1.625402 0.276063 -0.562635 0.798241 0.215067
0.643573 1.517981 -1.140373 0.478361 0.717986 -0.505636
0.158454 1.481633 1.420173 0.341914 0.599847 0.723380
-0.907878 1.557994 -0.831848 -0.452435 0.800511 -0.393046
1.207546 1.632807 -0.066403 0.455324 0.883758 0.107943
-0.813767 1.538476 0.961467 -0.391766 0.804491 0.446446
0.035417 1.475330 -1.440625 0.359464 0.748784 -0.556873
0.756439 1.527019 1.032295 0.484466 0.744939 0.458650
-1.204693 1.627429 -0.142764 -0.584969 0.808589 0.063212
0.963856 1.562948 -0.758089 0.480991 0.805816 -0.345409
-0.230494 1.475404 1.408293 0.128978 0.639691 0.757734
-0.584999 1.500179 -1.205469 -0.192570 0.789281 -0.583054
1.160160 1.609421 0.355250 0.457996 0.850401 0.258956
-1.086280 1.587770 0.543807 -0.541130 0.790857 0.285873
0.424175 1.482094 -1.323884 0.470041 0.700287 -0.537270
0.400255 1.479268 1.338756 0.419444 0.628707 0.654824
-1.076152 1.581767 -0.572387 -0.550729 0.807462 -0.211430
1.174434 1.608039 -0.328652 0.474226 0.879228 -0.045472
-0.612408 1.495614 1.190870 -0.213521 0.762048 0.611303
-0.207601 1.464873 -1.423861 0.176938 0.783193 -0.596072
0.956978 1.549190 0.789927 0.484085 0.794541 0.366561
-1.223417 1.618770 0.116605 -0.585977 0.790255 0.179243
0.789254 1.515605 -1.017260 0.482360 0.737020 -0.473424
0.010734 1.456998 1.456908 0.265778 0.584320 0.766767
-0.808681 1.516579 -0.997417 -0.386170 0.780748 -0.491228
1.230430 1.616530 0.093926 0.460116 0.867126 0.190751
-0.947353 1.540441 0.815601 -0.483253 0.789504 0.378352
0.187853 1.455619 -1.436686 0.421711 0.720327 -0.550716
0.638307 1.487723 1.180650 0.470938 0.690164 0.549446
-1.194918 1.600745 -0.307068 -0.595558 0.802972 -0.023372
1.078966 1.566763 -0.600109 0.488750 0.838839 -0.239733
-0.385679 1.460945 1.363448 -0.000869 0.671710 0.740814
-0.452847 1.464790 -1.325999 -0.069278 0.785688 -0.614732
1.118586 1.573958 0.525327 0.473484 0.825309 0.307698
-1.177115 1.589666 0.382277 -0.575297 0.776408 0.257339
0.579009 1.473288 -1.239747 0.479504 0.695974 -0.534506
0.258181 1.448558 1.423940 0.363545 0.584717 0.725218
-1.005311 1.540883 -0.745978 -0.519831 0.787202 -0.331797
1.236422 1.603776 -0.167638 0.476144 0.876564 0.070164
-0.762216 1.492539 1.072448 -0.354517 0.773554 0.525292
-0.058487 1.439046 -1.469776 0.291586 0.760175 -0.580613
0.860841 1.506764 0.959693 0.491768 0.752560 0.437971
-1.253576 1.604938 -0.044469 -0.605391 0.785754 0.126856
0.928063 1.517435 -0.873437 0.490244 0.767725 -0.412626
-0.143476 1.436156 1.461946 0.171431 0.589167 0.789616
-0.692156 1.475893 -1.152394 -0.296935 0.767987 -0.567473
1.227500 1.591778 0.258245 0.469104 0.845382 0.255481
-1.068689 1.544951 0.657321 -0.544489 0.771144 0.329953
0.345272 1.440044 -1.400354 0.457492 0.696670 -0.552586
0.506473 1.450871 1.309561 0.436999 0.632218 0.639791
-1.159392 1.566276 -0.477226 -0.594816 0.792650 -0.133790
1.176778 1.570283 -0.436960 0.495730 0.861038 -0.113421
-0.543455 1.451077 1.286734 -0.150697 0.708173 0.689769
-0.310124 1.432718 -1.420376 0.067151 0.781500 -0.620281
1.052662 1.533025 0.700249 0.489325 0.795312 0.357826
-1.246496 1.587759 0.219554 -0.600208 0.766951 0.227018
0.732732 1.469370 -1.126750 0.485586 0.705272 -0.516525
0.107797 1.421500 1.479170 0.292997 0.557171 0.776990
-0.912707 1.497568 -0.919333 -0.466256 0.764452 -0.445218
1.274020 1.592538 -0.005614 0.478993 0.861429 0.168834
-0.906049 1.494026 0.931385 -0.464831 0.767097 0.442147
0.097404 1.417048 -1.483975 0.377711 0.730964 -0.568354
0.746366 1.464710 1.120819 0.483912 0.700687 0.524277
-1.257754 1.582391 -0.208866 -0.620916 0.782238 0.050667
1.055480 1.522407 -0.715349 0.502348 0.803917 -0.318377
-0.303009 1.419436 1.434427 0.054864 0.613112 0.788089
-0.561001 1.437540 -1.289472 -0.185018 0.765124 -0.616728
1.198379 1.558615 0.428272 0.482174 0.820665 0.306623
-1.173417 1.549908 0.492711 -0.584243 0.755266 0.297043
0.505817 1.429050 -1.331572 0.475088 0.682123 -0.555877
0.363348 1.417382 1.413144 0.384641 0.579910 0.718161
-1.098816 1.525554 -0.652988 -0.576218 0.774843 -0.259983
1.253587 1.570670 -0.272408 0.499958 0.865887 0.016767
-0.700880 1.446189 1.179875 -0.302747 0.733914 0.608041
-0.158618 1.404386 -1.485044 0.200531 0.768720 -0.607336
0.964062 1.488973 0.876569 0.499841 0.758002 0.419036
-1.291666 1.579223 0.056354 -0.620906 0.761869 0.184478
0.881379 1.470314 -0.989205 0.495037 0.728789 -0.473080
-0.049676 1.398321 1.502690 0.207473 0.549519 0.809311
-0.800745 1.454188 -1.086072 -0.390176 0.746477 -0.539013
1.285539 1.572451 0.158985 0.484948 0.839230 0.246005
-1.039382 1.499216 0.774062 -0.540440 0.751434 0.378512
0.258942 1.399161 -1.465515 0.432699 0.701525 -0.566246
0.616282 1.424827 1.265777 0.455349 0.641927 0.616917
-1.235366 1.550856 -0.378627 -0.628750 0.775816 -0.052759
1.167037 1.528582 -0.549519 0.515279 0.834819 -0.193818
-0.466165 1.407267 1.374022 -0.085198 0.649633 0.755459
-0.417757 1.402579 -1.402227 -0.052974 0.768532 -0.637614
1.143563 1.518393 0.604436 0.497152 0.792799 0.352575
-1.257659 1.552481 0.326257 -0.611430 0.744032 0.269390
0.666740 1.423083 -1.231530 0.484692 0.680172 -0.549946
0.210893 1.387729 1.487354 0.317877 0.541389 0.778365
-1.014689 1.480952 -0.831643 -0.535191 0.750992 -0.386759
1.306433 1.564899 -0.107801 0.502350 0.854271 0.133658
-0.854124 1.446404 1.046632 -0.432580 0.740103 0.514899
0.000330 1.379999 -1.518025 0.312113 0.744636 -0.590002
0.855088 1.444338 1.048323 0.497342 0.711132 0.496933
-1.310730 1.561827 -0.108628 -0.639369 0.759413 0.120416
1.020444 1.475475 -0.833299 0.510582 0.763312 -0.395804
-0.213114 1.379251 1.493491 0.103472 0.562292 0.820440
-0.672153 1.412759 -1.238544 -0.292244 0.739721 -0.606141
1.270184 1.542870 0.328426 0.495028 0.813982 0.303943
-1.157654 1.506361 0.607346 -0.588710 0.734987 0.336474
0.424561 1.385782 -1.413867 0.462828 0.677676 -0.571442
0.473239 1.388338 1.387615 0.406553 0.583994 0.702614
-1.186700 1.511450 -0.554820 -0.621916 0.762219 -0.179562
1.258687 1.533184 -0.381151 0.524692 0.849623 -0.053274
-0.630386 1.400132 1.281427 -0.239433 0.685504 0.687572
-0.264558 1.371552 -1.486061 0.089182 0.768569 -0.633521
1.064366 1.473462 0.784811 0.509324 0.759807 0.404082
-1.318254 1.549486 0.160019 -0.632902 0.737610 0.235300
0.824360 1.422399 -1.103380 0.495419 0.693205 -0.523476
0.050594 1.362105 1.529927 0.238560 0.521524 0.819208
-0.909184 1.435160 -1.007769 -0.471422 0.727885 -0.497941
1.333212 1.550389 0.057789 0.505727 0.832199 0.227344
-0.998724 1.451291 0.892864 -0.526523 0.730742 0.434500
0.165566 1.359734 -1.518254 0.391263 0.713619 -0.581086
0.728435 1.401361 1.207866 0.474818 0.655019 0.587791
-1.302678 1.534519 -0.277772 -0.653615 0.756306 0.028092
1.145294 1.483324 -0.666127 0.529951 0.799895 -0.281637
-0.381060 1.364641 1.450914 -0.023084 0.592520 0.805225
-0.529666 1.374690 -1.369315 -0.172442 0.745140 -0.644228
1.228035 1.504617 0.504350 0.508188 0.787023 0.349770
-1.256661 1.512793 0.437128 -0.619788 0.721983 0.307576
0.591893 1.377410 -1.329287 0.478745 0.664160 -0.574190
0.319536 1.355882 1.481131 0.342289 0.536097 0.771646
-1.112877 1.466448 -0.736329 -0.593611 0.739963 -0.316354
1.327076 1.532922 -0.213081 0.529188 0.844506 0.082278
-0.792162 1.398400 1.159150 -0.385172 0.706213 0.594059
-0.103052 1.344658 -1.538348 0.222557 0.756057 -0.615505
0.962813 1.426646 0.964629 0.511445 0.718906 0.470742
-1.352890 1.538015 -0.006437 -0.652651 0.735047 0.183718
0.974284 1.426776 -0.952531 0.512913 0.720939 -0.466012
-0.116335 1.340632 1.539722 0.144745 0.522048 0.840544
-0.784935 1.390652 -1.173861 -0.386881 0.714346 -0.583123
1.332706 1.525661 0.226734 0.512472 0.805798 0.296754
-1.129994 1.459562 0.725763 -0.587162 0.715473 0.378601
0.335714 1.343880 -1.484999 0.439361 0.682802 -0.583733
0.586893 1.361664 1.347344 0.430267 0.594928 0.678919
-1.267383 1.497775 -0.453212 -0.657327 0.747786 -0.093470
1.251581 1.491346 -0.494208 0.547213 0.825437 -0.138603
-0.551326 1.354981 1.374849 -0.170584 0.631439 0.756430
-0.375735 1.340744 -1.472535 -0.033802 0.755667 -0.654083
1.160009 1.459839 0.686454 0.520806 0.757285 0.394056
-1.332856 1.515168 0.267064 -0.642339 0.713682 0.279391
0.757607 1.374503 -1.213636 0.491546 0.664787 -0.562531
0.156992 1.327677 1.543247 0.266701 0.504845 0.820976
-1.015754 1.418774 -0.919143 -0.541630 0.713631 -0.444261
1.369679 1.524596 -0.045479 0.531297 0.824194 0.196031
-0.947192 1.402046 1.012041 -0.499916 0.707366 0.499718
0.065458 1.321964 -1.557830 0.328616 0.729840 -0.599454
0.841450 1.380649 1.136676 0.495376 0.668290 0.554969
-1.360138 1.516151 -0.175350 -0.670913 0.734026 0.105275
1.111798 1.435182 -0.786118 0.537542 0.757877 -0.369691
-0.288567 1.323531 1.515986 0.031899 0.542130 0.839689
-0.644759 1.349289 -1.321743 -0.282121 0.715870 -0.638700
1.304574 1.490791 0.401563 0.522945 0.778437 0.347224
-1.243458 1.468902 0.552388 -0.624734 0.701172 0.343606
0.508749 1.332901 -1.417872 0.465863 0.658614 -0.590931
0.433048 1.326165 1.460246 0.367968 0.539992 0.756973
-1.205556 1.453546 -0.635436 -0.641957 0.729793 -0.235146
1.335570 1.496207 -0.322042 0.557408 0.830142 0.012658
-0.720768 1.350796 1.266530 -0.324095 0.664357 0.673492
-0.212353 1.311180 -1.544586 0.111223 0.758635 -0.641952
1.067785 1.411513 0.871566 0.526473 0.722143 0.448705
-1.383510 1.510035 0.098032 -0.662359 0.709936 0.239313
0.917519 1.377217 -1.071110 0.509821 0.681622 -0.524856
-0.012973 1.303746 1.572528 0.180043 0.493206 0.851077
-0.897765 1.371359 -1.096486 -0.468687 0.692770 -0.548090
1.384862 1.505845 0.123628 0.534805 0.796641 0.281685
-1.090759 1.410302 0.847023 -0.577294 0.696178 0.426694
0.239659 1.303617 -1.543765 0.400305 0.696325 -0.595724
0.703087 1.337593 1.292572 0.456254 0.609972 0.647894
-1.339450 1.483521 -0.349532 -0.683125 0.730281 -0.005512
1.232314 1.445540 -0.611634 0.563834 0.791902 -0.234483
-0.464217 1.311217 1.458143 -0.103082 0.577131 0.810120
-0.491349 1.312172 -1.444248 -0.156340 0.730470 -0.664810
1.249321 1.447467 0.583507 0.534799 0.750447 0.388355
-1.335200 1.476044 0.378080 -0.649591 0.690744 0.317655
0.681716 1.327360 -1.317531 0.483052 0.646309 -0.590716
0.269060 1.295188 1.542326 0.294072 0.498611 0.815419
-1.118685 1.404815 -0.822165 -0.602130 0.703385 -0.377741
1.394326 1.494257 -0.151306 0.560858 0.814476 0.148547
-0.885338 1.352399 1.129436 -0.458399 0.679104 0.573313
-0.041077 1.285991 -1.583775 0.241707 0.744746 -0.622038
0.953663 1.362782 1.053494 0.516766 0.678641 0.521918
-1.406776 1.494607 -0.071544 -0.682427 0.709470 0.175915
1.066935 1.385044 -0.908268 0.537400 0.712841 -0.450620
-0.189027 1.284157 1.568251 0.078770 0.501570 0.861524
-0.761685 1.326600 -1.259919 -0.377706 0.686421 -0.621421
1.371865 1.475813 0.297210 0.541875 0.767760 0.341931
-1.218181 1.421358 0.671883 -0.624961 0.681764 0.380291
0.417782 1.289966 -1.495479 0.442963 0.663771 -0.602654
0.550498 1.298794 1.424536 0.396320 0.551274 0.734185
-1.291119 1.441483 -0.530880 -0.680326 0.718334 -0.145441
1.331744 1.454712 -0.435229 0.583548 0.808605 -0.075037
-0.640518 1.304264 1.366353 -0.254397 0.616156 0.745408
-0.327027 1.279721 -1.536431 -0.013341 0.747252 -0.664407
1.168239 1.398617 0.771209 0.542716 0.719913 0.432648
-1.402084 1.477204 0.205393 -0.669708 0.684976 0.286877
0.850721 1.327702 -1.186701 0.502118 0.649776 -0.570674
0.096644 1.268711 1.591534 0.211502 0.475442 0.853945
-1.008917 1.354907 -1.007928 -0.539507 0.676801 -0.500872
1.425796 1.482308 0.019048 0.562072 0.786790 0.255025
-1.040389 1.359537 0.969612 -0.556246 0.675900 0.483476
0.136708 1.265162 -1.589381 0.340846 0.715213 -0.610159
0.820349 1.316331 1.223901 0.484372 0.625763 0.611395
-1.401690 1.467513 -0.244657 -0.700469 0.709169 0.080146
1.201097 1.396471 -0.733032 0.571544 0.749946 -0.333046
-0.369488 1.269177 1.529728 -0.042006 0.527936 0.848245
-0.610335 1.286061 -1.401118 -0.268131 0.697891 -0.664119
1.330777 1.435460 0.477743 0.551764 0.739839 0.384961
-1.325210 1.432266 0.493519 -0.654350 0.669365 0.351817
0.597235 1.281569 -1.412730 0.468540 0.639309 -0.609716
0.386149 1.264803 1.526863 0.322802 0.501663 0.802579
-1.216238 1.392839 -0.718969 -0.653694 0.695411 -0.298475
1.406755 1.458848 -0.260387 0.592471 0.801417 0.081906
-0.813740 1.303222 1.242581 -0.401946 0.644195 0.650732
-0.153667 1.251919 -1.595773 0.131822 0.751146 -0.646841
1.063304 1.347713 0.960041 0.538691 0.683672 0.492346
-1.441849 1.468836 0.033931 -0.689954 0.683571 0.238106
1.011187 1.333909 -1.030779 0.530434 0.670201 -0.519106
-0.082739 1.246643 1.607107 0.118579 0.471896 0.873644
-0.878866 1.306801 -1.184665 -0.459426 0.661230 -0.593044
1.428808 1.458464 0.191897 0.565382 0.755779 0.330365
-1.181112 1.371003 0.794943 -0.618393 0.663582 0.421009
0.319376 1.248870 -1.560767 0.405775 0.678541 -0.612315
0.670685 1.274002 1.374026 0.428186 0.567447 0.703321
-1.368132 1.429252 -0.424252 -0.708778 0.703590 -0.050931
1.315615 1.408787 -0.552955 0.603144 0.777756 -0.176952
-0.551924 1.259324 1.456421 -0.183229 0.565909 0.803850
-0.446306 1.250457 -1.513591 -0.138222 0.721581 -0.678392
1.262482 1.387386 0.665701 0.560495 0.712170 0.422680
-1.408319 1.439183 0.316379 -0.675350 0.661055 0.326968
0.774463 1.279049 -1.296753 0.490108 0.628565 -0.603904
0.212078 1.235629 1.596456 0.241553 0.467931 0.850113
-1.116601 1.341162 -0.910102 -0.601527 0.666339 -0.440633
1.454878 1.454095 -0.087484 0.593752 0.775984 0.212857
-0.979398 1.308286 1.091469 -0.521273 0.652741 0.549730
0.027161 1.228607 -1.621397 0.257312 0.734013 -0.628502
0.937014 1.298020 1.142390 0.513932 0.638741 0.572611
-1.453119 1.448512 -0.138922 -0.711029 0.684783 0.159715
1.158277 1.345092 -0.857434 0.569321 0.703477 -0.425433
-0.267483 1.229059 1.588503 0.010564 0.487382 0.873125
-0.731358 1.262645 -1.343311 -0.364349 0.664410 -0.652541
1.403039 1.422703 0.370530 0.572173 0.726352 0.380828
-1.302985 1.384375 0.613508 -0.655564 0.649957 0.384437
0.504635 1.237567 -1.497219 0.445287 0.644118 -0.621958
0.507358 1.236710 1.496586 0.354785 0.512479 0.781980
-1.306783 1.382142 -0.611649 -0.696246 0.687103 -0.207682
1.406771 1.418231 -0.373447 0.622582 0.782538 -0.005109
-0.732955 1.255261 1.348906 -0.334098 0.602792 0.724583
-0.271791 1.219854 -1.593546 0.006976 0.742790 -0.669488
1.168588 1.335202 0.858390 0.560964 0.682076 0.469139
-1.464837 1.438012 0.141712 -0.695010 0.657475 0.291013
0.945091 1.282787 -1.151360 0.518210 0.635030 -0.572884
0.029977 1.211058 1.632222 0.153467 0.452914 0.878246
-0.994567 1.289987 -1.097288 -0.529958 0.642556 -0.553413
1.474533 1.437513 0.085693 0.593711 0.743131 0.308649
-1.132651 1.318877 0.920286 -0.602307 0.645878 0.469114
0.213847 1.209751 -1.612871 0.349345 0.700029 -0.622831
0.792149 1.252015 1.309057 0.463582 0.585198 0.665308
-1.435366 1.415647 -0.316662 -0.727828 0.684368 0.043671
1.287356 1.359149 -0.675115 0.612130 0.737579 -0.285086
-0.455415 1.216325 1.534947 -0.116911 0.518751 0.846894
-0.569148 1.223591 -1.475832 -0.251846 0.686583 -0.682039
1.348965 1.376979 0.557032 0.580182 0.699541 0.417171
-1.402114 1.396041 0.431655 -0.679257 0.638978 0.360994
0.689277 1.231923 -1.398743 0.472957 0.619725 -0.626301
0.332705 1.204614 1.587001 0.272681 0.469649 0.839687
-1.219056 1.329765 -0.805190 -0.656139 0.659724 -0.366394
1.471693 1.420539 -0.196724 0.628233 0.763145 0.151438
-0.908333 1.257522 1.210116 -0.471083 0.624612 0.622849
-0.088619 1.194002 -1.639558 0.150006 0.745126 -0.649835
1.051299 1.282690 1.049597 0.543972 0.645869 0.535675
-1.492979 1.425335 -0.032143 -0.716749 0.658171 0.230394
1.104296 1.292500 -0.983244 0.558404 0.658336 -0.504757
-0.158504 1.190950 1.633826 0.055088 0.456930 0.887795
-0.852846 1.242135 -1.271377 -0.445445 0.635174 -0.630977
1.464993 1.407918 0.262699 0.596529 0.711019 0.372297
-1.268770 1.333243 0.737674 -0.651420 0.632645 0.418822
0.404303 1.195618 -1.569465 0.409223 0.659766 -0.630274
0.631503 1.211128 1.451327 0.391394 0.528913 0.753035
-1.388864 1.371750 -0.502040 -0.729170 0.675700 -0.108356
1.394361 1.372690 -0.491042 0.646118 0.755253 -0.110113
-0.643484 1.209089 1.445993 -0.261521 0.557736 0.787742
-0.394702 1.189926 -1.576778 -0.119468 0.718214 -0.685490
1.267800 1.324763 0.750785 0.583581 0.673666 0.453439
-1.475426 1.401656 0.252631 -0.698584 0.632363 0.334809
0.869191 1.232591 -1.267395 0.501822 0.610952 -0.612301
0.148697 1.177445 1.643378 0.186041 0.443895 0.876554
-1.106984 1.276104 -0.999581 -0.592424 0.630630 -0.501338
1.508395 1.411862 -0.021814 0.626666 0.730044 0.272628
-1.073276 1.266102 1.046016 -0.573756 0.627148 0.526772
0.101496 1.172656 -1.651338 0.269471 0.722899 -0.636241
0.913224 1.233022 1.230419 0.501595 0.600652 0.622591
-1.491819 1.399348 -0.208654 -0.738738 0.660637 0.133512
1.247276 1.306803 -0.801039 0.608725 0.691364 -0.389191
-0.351338 1.175454 1.600666 -0.058888 0.478619 0.876046
-0.694235 1.199351 -1.423090 -0.348548 0.649413 -0.675853
1.426332 1.366297 0.446829 0.602244 0.683087 0.413152
-1.383535 1.348276 0.551620 -0.680659 0.619401 0.391209
0.595626 1.186799 -1.490418 0.448375 0.623701 -0.640279
0.457645 1.175814 1.562836 0.307249 0.479341 0.822089
-1.314630 1.320092 -0.695446 -0.703437 0.654157 -0.277947
1.476025 1.381369 -0.309537 0.662174 0.746238 0.068221
-0.827726 1.208083 1.322861 -0.407496 0.590458 0.696639
-0.210128 1.161395 -1.643650 0.026050 0.741226 -0.670749
1.161401 1.270190 0.947523 0.573607 0.645290 0.504556
-1.520735 1.396999 0.076285 -0.719476 0.630779 0.290641
1.039655 1.239814 -1.108283 0.541195 0.620261 -0.567789
-0.042868 1.154866 1.665391 0.093535 0.436646 0.894758
-0.973059 1.224683 -1.186366 -0.514778 0.612939 -0.599424
1.515753 1.389775 0.154507 0.625277 0.694803 0.355355
-1.222927 1.279982 0.865024 -0.639417 0.617068 0.458665
0.296556 1.155838 -1.628474 0.355351 0.683565 -0.637546
0.757138 1.188291 1.391166 0.433100 0.547908 0.715696
-1.461234 1.360451 -0.391521 -0.752008 0.659132 -0.005321
1.369667 1.322921 -0.613366 0.657827 0.718526 -0.225799
-0.545749 1.165081 1.531811 -0.191377 0.513535 0.836455
-0.521379 1.162304 -1.545135 -0.234684 0.682008 -0.692667
1.359367 1.315630 0.639425 0.606741 0.659127 0.444315
-1.473491 1.359719 0.367533 -0.700993 0.609333 0.370571
0.783999 1.184069 -1.376187 0.481099 0.599937 -0.639233
0.272812 1.145863 1.640338 0.219071 0.443940 0.868865
-1.214335 1.264893 -0.893718 -0.649094 0.624070 -0.434986
1.529963 1.380679 -0.131387 0.663087 0.716074 0.218068
-1.003497 1.213763 1.169706 -0.530584 0.605283 0.593392
-0.017323 1.137579 -1.675971 0.165463 0.739347 -0.652677
1.032120 1.217119 1.139437 0.540608 0.610111 0.579231
-1.536721 1.379048 -0.100205 -0.743431 0.633458 0.214571
1.195780 1.252936 -0.929398 0.594235 0.645034 -0.480434
-0.239994 1.136766 1.652841 -0.009608 0.447507 0.894229
-0.820000 1.177972 -1.355629 -0.428695 0.615981 -0.660899
1.493450 1.354035 0.336198 0.627272 0.664073 0.406862
-1.352796 1.296765 0.676219 -0.678027 0.602723 0.420718
0.493893 1.143954 -1.570005 0.412570 0.639685 -0.648529
0.585733 1.149422 1.523647 0.347234 0.495250 0.796339
-1.401845 1.311234 -0.582949 -0.742320 0.646272 -0.176900
1.467834 1.336770 -0.426694 0.690246 0.722666 -0.036256
-0.738061 1.160611 1.427071 -0.335984 0.551516 0.763508
