ply
format ascii 1.0
comment Rock-like surface point cloud
element vertex 1000
property float x
property float y
property float z
end_header
0.000000 0.442140 0.000000
0.001275 0.487075 -0.005501
-0.024563 0.432496 0.048649
0.056490 0.365804 -0.019954
-0.087551 0.510488 0.031677
0.048573 0.300283 -0.006558
0.075412 0.450476 -0.004404
-0.059602 0.438030 0.066298
0.041998 0.307653 0.003170
-0.064190 0.508267 0.022700
0.030516 0.363842 0.033228
0.066167 0.375701 0.025090
-0.097390 0.403205 -0.003096
0.083387 0.269731 -0.017923
0.040501 0.485616 0.036612
-0.006559 0.379638 0.016078
0.034997 0.360224 0.049689
-0.118419 0.398484 -0.013542
0.082407 0.295175 -0.058691
0.053605 0.384181 0.070287
-0.061427 0.316110 -0.050616
0.060359 0.331841 0.069884
-0.075784 0.445648 0.085708
0.037084 0.397896 -0.043618
0.053032 0.393102 0.086856
-0.112362 0.352142 -0.116979
0.126895 0.317153 -0.089218
0.019743 0.417774 0.098640
-0.046718 0.276901 -0.115926
0.059147 0.363468 0.103475
-0.137551 0.316799 0.027675
0.068950 0.375669 -0.099066
0.005856 0.365433 0.146524
-0.098126 0.346110 -0.104311
0.131525 0.379816 0.066629
-0.079171 0.425608 0.151601
-0.019464 0.343197 -0.181914
0.106861 0.408459 0.095246
-0.140760 0.335309 -0.153062
0.102251 0.361905 -0.180037
-0.054861 0.332070 0.173766
-0.100061 0.289902 -0.113766
0.106151 0.329353 0.152694
-0.178524 0.283873 0.162343
0.061942 0.412832 -0.166572
0.062618 0.416199 0.174637
-0.138919 0.393911 -0.126068
0.179973 0.434496 -0.061145
-0.076636 0.403841 0.170754
-0.124745 0.303770 -0.210965
0.145931 0.327139 0.073845
-0.169573 0.300550 -0.069412
0.073945 0.393619 -0.180446
-0.075495 0.309193 0.253232
-0.093455 0.342719 -0.056890
0.176314 0.351198 0.157655
-0.199005 0.315420 0.255011
-0.031021 0.366673 -0.237393
0.155466 0.419958 0.120184
-0.193400 0.371913 -0.140558
0.134673 0.430187 -0.198546
-0.114490 0.311064 0.211655
-0.138473 0.314202 -0.150177
0.158644 0.226007 0.094849
-0.206283 0.279631 0.105471
0.113508 0.385567 -0.195948
0.020105 0.385845 0.267845
-0.089548 0.340485 -0.049778
0.233736 0.416313 0.036198
-0.151228 0.387179 0.217632
-0.149726 0.378404 -0.211638
0.193061 0.300798 0.027299
-0.237036 0.343400 -0.084374
0.074653 0.395330 -0.199740
-0.124882 0.232975 0.299126
-0.071692 0.275910 -0.119183
0.197696 0.238003 0.140390
-0.245101 0.275811 0.257569
0.038551 0.319260 -0.212621
0.126394 0.413978 0.192385
-0.156334 0.312287 -0.068772
0.209701 0.410783 -0.129257
-0.117251 0.372504 0.172189
-0.136724 0.356304 -0.197619
0.185135 0.170542 -0.003678
-0.244396 0.359692 0.029162
0.154277 0.364307 -0.205986
-0.024550 0.305342 0.322574
-0.025494 0.249342 -0.113747
0.250012 0.325451 0.085960
-0.218633 0.322943 0.262302
-0.097434 0.383381 -0.179090
0.177446 0.314801 0.075201
-0.251702 0.295738 -0.037260
0.112617 0.345738 -0.161104
-0.125400 0.228774 0.254948
-0.088362 0.254008 -0.218407
0.200351 0.171267 0.057831
-0.242097 0.372821 0.137904
0.154195 0.240969 -0.212062
0.077628 0.373346 0.258082
-0.071726 0.278106 -0.097777
0.266327 0.347476 -0.055076
-0.130581 0.419156 0.141637
-0.085120 0.389635 -0.219793
0.187241 0.193454 -0.014145
-0.288638 0.319439 0.043515
0.145620 0.350671 -0.193657
-0.045815 0.216880 0.316107
-0.066866 0.221836 -0.214947
0.243147 0.266157 0.073497
-0.241294 0.328951 0.228284
-0.006687 0.286281 -0.164729
0.130951 0.318631 0.181172
-0.198140 0.309093 -0.064568
0.209206 0.269292 -0.102902
-0.105144 0.346353 0.157587
-0.089402 0.280428 -0.241150
0.199198 0.169514 0.004739
-0.273300 0.378664 0.078938
0.245933 0.252650 -0.261838
0.053936 0.312117 0.261381
-0.075468 0.275647 -0.152609
0.257170 0.310655 -0.021154
-0.186572 0.347702 0.189955
-0.016265 0.375870 -0.246142
0.172864 0.247625 0.092195
-0.269584 0.303462 -0.004467
0.141022 0.265898 -0.122703
-0.063112 0.195204 0.279617
-0.153232 0.259308 -0.227364
0.250878 0.247017 0.056344
-0.243243 0.393409 0.111226
0.098274 0.171593 -0.186021
0.096874 0.282289 0.231914
-0.180050 0.356175 -0.065566
0.277486 0.254045 -0.083309
-0.114216 0.432517 0.107013
-0.038672 0.287612 -0.246994
0.199467 0.207354 0.037103
-0.274947 0.298297 0.066721
0.256490 0.314907 -0.295625
0.036810 0.261263 0.248089
-0.165120 0.262195 -0.193394
0.250199 0.291062 0.002918
-0.223243 0.315056 0.204208
0.031721 0.313574 -0.273733
0.153445 0.265268 0.221097
-0.279495 0.359957 -0.053112
0.213956 0.174025 -0.048874
-0.084658 0.290791 0.229796
-0.169686 0.300464 -0.183698
0.259453 0.243064 0.068732
-0.284967 0.322361 0.087374
0.201865 0.167115 -0.250005
0.083173 0.250747 0.206159
-0.201357 0.319228 -0.064423
0.249321 0.275348 -0.079220
-0.179035 0.337217 0.175402
0.019086 0.269912 -0.297961
0.206980 0.253891 0.146616
-0.239138 0.301238 -0.041554
0.214471 0.275874 -0.227485
-0.005707 0.226729 0.281638
-0.239435 0.269701 -0.205837
0.302735 0.268697 0.043308
-0.246443 0.324191 0.137675
0.068694 0.234822 -0.274857
0.137400 0.222083 0.263195
-0.330084 0.355657 0.013377
0.298713 0.192348 -0.056335
-0.118965 0.382750 0.190565
-0.110664 0.281567 -0.192497
0.250667 0.243745 0.116453
-0.257371 0.255363 0.062691
0.261157 0.250490 -0.323653
0.058763 0.265288 0.201066
-0.232183 0.237905 -0.159702
0.226322 0.252584 -0.039513
-0.228514 0.258795 0.233872
0.043751 0.257135 -0.348241
0.220511 0.267634 0.252665
-0.317384 0.291138 -0.065845
0.224935 0.180003 -0.102838
-0.060518 0.240323 0.320672
-0.222341 0.280939 -0.202035
0.349283 0.252573 0.100005
-0.321409 0.238035 0.150853
0.121354 0.211057 -0.271461
0.114176 0.182664 0.237100
-0.313595 0.283007 0.000972
0.278595 0.246853 -0.090695
-0.193795 0.299794 0.227069
-0.051047 0.244224 -0.269766
0.253464 0.241305 0.181718
-0.190120 0.245370 -0.054769
0.255650 0.267642 -0.318256
0.004139 0.267098 0.274328
-0.249217 0.213717 -0.250328
0.311038 0.200490 0.017516
-0.251302 0.243482 0.199849
0.055830 0.238383 -0.343693
0.219039 0.231442 0.288836
-0.422860 0.242327 0.009333
0.299494 0.174205 -0.059135
-0.105930 0.288404 0.304335
-0.142327 0.229848 -0.250455
0.326136 0.241556 0.164756
-0.299282 0.225675 0.122567
0.173132 0.234094 -0.287443
0.065299 0.210161 0.244250
-0.266415 0.216358 -0.153107
0.221217 0.219065 -0.059318
-0.250175 0.222323 0.258253
-0.033308 0.251592 -0.327417
0.285895 0.224542 0.225748
-0.288606 0.167399 -0.064691
0.244479 0.217279 -0.223028
-0.052118 0.227769 0.349135
-0.208570 0.227494 -0.272852
0.416337 0.181407 0.076429
-0.357371 0.180299 0.231675
0.094554 0.247444 -0.316705
0.178969 0.192652 0.292763
-0.386934 0.222693 -0.027869
0.322451 0.218863 -0.090818
-0.180338 0.240458 0.293094
-0.079393 0.171776 -0.345003
0.289931 0.209527 0.199380
-0.188971 0.212952 0.012737
0.198485 0.202322 -0.275041
-0.006272 0.238405 0.307956
-0.254265 0.221809 -0.251340
0.279122 0.141836 0.000563
-0.240779 0.212942 0.203368
-0.029765 0.239782 -0.306851
0.302279 0.203406 0.248325
-0.427996 0.134218 -0.037583
0.277651 0.195073 -0.146963
-0.073443 0.214434 0.340742
-0.126255 0.166588 -0.315813
0.409776 0.199609 0.155514
-0.387734 0.231409 0.199206
0.138338 0.288851 -0.315844
0.102596 0.194886 0.327391
-0.307824 0.210133 -0.157416
0.271526 0.206897 -0.081671
-0.259521 0.213025 0.270044
-0.067827 0.218789 -0.399831
0.314401 0.146289 0.178120
-0.250628 0.109221 0.006272
0.227469 0.168928 -0.221977
-0.063843 0.203105 0.346840
-0.223085 0.276269 -0.237852
0.417617 0.108170 0.041901
-0.335216 0.155852 0.238813
0.021798 0.197478 -0.257918
0.253287 0.212965 0.295907
-0.409797 0.182202 -0.087943
0.317574 0.185127 -0.128311
-0.113243 0.175718 0.320862
-0.066973 0.056985 -0.398451
0.330191 0.194234 0.206393
-0.258385 0.231047 0.088817
0.135427 0.216906 -0.283563
0.014190 0.180597 0.374543
-0.306255 0.219072 -0.208148
0.271470 0.149557 -0.026150
-0.227275 0.240079 0.159443
-0.087799 0.283369 -0.366460
0.352350 0.101829 0.168529
-0.386505 0.108972 -0.026945
0.268671 0.202235 -0.209333
-0.058919 0.186850 0.306058
-0.149488 0.247191 -0.254067
0.466092 0.138926 0.107107
-0.445391 0.235923 0.223576
0.125184 0.241103 -0.277336
0.158337 0.242356 0.368307
-0.343767 0.181045 -0.159999
0.325118 0.164481 -0.105386
-0.221129 0.188331 0.307780
-0.049138 0.065735 -0.450187
0.314528 0.118583 0.166426
-0.258272 0.123512 0.085984
0.143689 0.088797 -0.178073
-0.057819 0.118205 0.369410
-0.302847 0.283177 -0.160521
0.371339 0.111530 0.017620
-0.250438 0.152672 0.176863
-0.080294 0.219972 -0.278191
0.310843 0.145821 0.245638
-0.394121 0.183279 -0.081874
0.283994 0.184736 -0.219874
-0.033055 0.154318 0.290140
-0.093735 0.107933 -0.332337
0.386396 0.173110 0.184090
-0.350366 0.249112 0.108097
0.166871 0.262271 -0.331875
0.068150 0.192173 0.410594
-0.370919 0.135649 -0.197797
0.325618 0.160370 -0.063360
-0.230177 0.280227 0.171753
-0.058603 0.185899 -0.442647
0.363115 0.026874 0.121439
-0.359802 0.136292 0.015909
0.231185 0.119986 -0.144301
-0.066758 0.138495 0.290275
-0.228394 0.302989 -0.165659
0.457300 0.115238 0.064587
-0.412524 0.199827 0.212677
0.024843 0.155261 -0.238124
0.204347 0.246608 0.351951
-0.353724 0.162943 -0.106669
0.308423 0.109600 -0.165139
-0.124607 0.135836 0.353871
-0.070689 0.027128 -0.387264
0.321268 0.137511 0.185754
-0.302585 0.141067 0.102988
0.110451 0.126193 -0.271354
-0.005833 0.045866 0.395871
-0.405955 0.158610 -0.170379
0.355918 0.168994 -0.017705
-0.170265 0.170422 0.133708
-0.083415 0.211523 -0.390634
0.347548 0.036931 0.192690
-0.379158 0.195900 -0.029462
0.283825 0.183016 -0.236864
-0.001122 0.181243 0.251543
-0.154827 0.198491 -0.256674
0.430587 0.135452 0.132682
-0.401705 0.218688 0.115721
0.172350 0.182959 -0.300986
0.118353 0.245812 0.393062
-0.395426 0.065492 -0.186931
0.374126 0.107296 -0.089686
-0.227094 0.264767 0.278555
-0.047934 0.083330 -0.401067
0.350537 0.044036 0.147245
-0.364846 0.145602 0.011149
0.135403 0.049304 -0.149074
-0.053597 0.029520 0.327255
-0.332818 0.206356 -0.169869
0.402996 0.160970 0.034752
-0.304796 0.134401 0.209502
-0.061742 0.141739 -0.341733
0.239805 0.158361 0.312968
-0.358453 0.163416 0.000303
0.266620 0.112919 -0.258001
-0.018059 0.110706 0.363363
-0.127108 0.096690 -0.324329
0.355546 0.131234 0.181020
-0.339800 0.116361 0.107561
0.185005 0.152368 -0.346404
0.066541 0.068622 0.384013
-0.467305 0.039795 -0.239825
0.411375 0.176667 -0.045640
-0.158931 0.194156 0.179478
-0.034694 0.111131 -0.399525
0.364811 0.000715 0.190857
-0.384496 0.168436 -0.031786
0.262419 0.110001 -0.166359
-0.018727 0.169936 0.272947
-0.219960 0.152719 -0.250821
0.418181 0.127804 0.081043
-0.387656 0.142558 0.159899
0.072677 0.116663 -0.355745
0.146592 0.230869 0.355202
-0.381722 0.066131 -0.109823
0.336036 0.049969 -0.151671
-0.177315 0.177936 0.394432
-0.096633 0.117990 -0.344767
0.344569 0.091694 0.207685
-0.374191 0.114510 -0.008060
0.108212 0.088042 -0.282372
0.004387 -0.049745 0.363048
-0.425497 0.092219 -0.244295
0.386979 0.212367 0.003793
-0.200179 0.085780 0.229309
-0.040296 0.054768 -0.402574
0.277014 0.063288 0.287014
-0.387728 0.134429 0.056288
0.284118 0.117903 -0.251994
0.029760 0.135758 0.357248
-0.165848 0.066136 -0.313693
0.390323 0.091905 0.126396
-0.347223 0.053763 0.173329
0.208872 0.074288 -0.382506
0.115689 0.124147 0.347392
-0.455157 0.024915 -0.248965
0.458078 0.100957 -0.058461
-0.199635 0.174929 0.290482
-0.043759 0.129100 -0.356691
0.364164 0.056743 0.256306
-0.386344 0.102014 -0.088240
0.173892 0.075653 -0.221075
-0.028745 0.079289 0.340155
-0.289158 0.070099 -0.292826
0.362306 0.163974 0.042088
-0.328651 0.067569 0.204111
0.006073 0.072544 -0.452379
0.170798 0.134208 0.325000
-0.384009 0.077976 -0.022362
0.273816 0.058434 -0.219566
-0.093204 0.092505 0.434701
-0.139561 0.099812 -0.327666
0.365646 0.087091 0.217844
-0.369057 0.067459 0.052348
0.189651 0.054512 -0.346087
0.075518 -0.024386 0.358590
-0.465994 0.079057 -0.273759
0.451299 0.174370 -0.008641
-0.168406 0.067091 0.279521
-0.006792 -0.000294 -0.365359
0.311585 0.055174 0.302340
-0.422834 0.064885 0.014761
0.294341 0.057880 -0.211970
0.011125 0.131336 0.385299
-0.191852 -0.025952 -0.332378
0.375815 0.075711 0.055563
-0.330239 -0.018910 0.259007
0.134352 0.061444 -0.502203
0.134195 0.102942 0.322315
-0.406170 0.050395 -0.187880
0.404805 0.041649 -0.111630
-0.219249 0.095234 0.368202
-0.086916 0.184625 -0.346323
0.360198 0.115288 0.331425
-0.362362 0.044272 -0.093626
0.144698 0.106232 -0.320865
0.003689 0.009160 0.380902
-0.355083 0.083324 -0.303113
0.348355 0.167641 0.021214
-0.272850 0.043281 0.212685
0.023658 -0.053386 -0.415379
0.210014 0.048682 0.306542
-0.432311 0.052267 -0.012320
0.289937 0.039204 -0.179656
-0.036241 0.057291 0.427170
-0.152147 -0.027496 -0.320024
0.392401 0.041601 0.145604
-0.358784 0.022109 0.185909
0.220968 -0.041028 -0.425899
0.117553 0.028473 0.338658
-0.441516 0.106559 -0.216525
0.507275 0.070089 -0.032377
-0.201967 0.030204 0.345416
-0.027071 0.100334 -0.357476
0.326637 0.119543 0.361015
-0.412338 0.002366 -0.034210
0.233679 0.057187 -0.299679
-0.016131 0.055279 0.430441
-0.232586 -0.028741 -0.346950
0.319828 0.083902 0.017573
-0.302622 -0.064766 0.268529
0.097926 0.034997 -0.528704
0.150260 0.008577 0.308961
-0.391251 0.038289 -0.153965
0.320808 0.036306 -0.131262
-0.187477 0.021704 0.359932
-0.106498 0.091136 -0.327554
0.372642 0.101126 0.321113
-0.335142 0.021402 -0.005688
0.209756 0.010971 -0.322888
0.053763 0.035686 0.370785
-0.389064 0.147299 -0.227778
0.419455 0.080639 0.008789
-0.261893 0.061945 0.226772
0.026002 -0.069391 -0.359874
0.252780 0.043066 0.308065
-0.482946 0.019053 -0.043638
0.315309 -0.038515 -0.172702
-0.033401 0.009591 0.440338
-0.169771 -0.102580 -0.328250
0.379462 0.013391 0.060829
-0.348094 -0.024900 0.284803
0.181420 -0.016669 -0.543167
0.128096 0.003530 0.330410
-0.393861 0.076139 -0.165614
0.456131 0.016658 -0.100032
-0.230838 -0.051377 0.371703
-0.051748 0.132390 -0.360478
0.322245 0.157747 0.400885
-0.346756 -0.018185 -0.010224
0.217473 0.084534 -0.336074
-0.007762 0.003674 0.437302
-0.278725 0.052705 -0.305740
0.305140 0.046883 0.025435
-0.286989 -0.051653 0.203444
0.108625 -0.058646 -0.427307
0.184986 -0.070404 0.288867
-0.432966 0.007098 -0.165478
0.316000 -0.031345 -0.055409
-0.146498 0.001644 0.326357
-0.118331 -0.041562 -0.308301
0.394135 0.036380 0.216002
-0.342455 0.011244 0.104486
0.227659 -0.093276 -0.387981
0.082992 0.080678 0.346847
-0.384404 0.142272 -0.133115
0.482989 -0.018601 -0.064152
-0.285753 0.048137 0.284547
-0.008024 0.015544 -0.369060
0.268882 0.084588 0.330145
-0.469620 0.018271 -0.030641
0.280855 -0.025879 -0.280152
-0.046708 -0.088508 0.469822
-0.206072 -0.066623 -0.334688
0.332583 -0.002051 0.055675
-0.323412 -0.065374 0.279099
0.186865 -0.008804 -0.509260
0.137896 -0.086606 0.319945
-0.379083 -0.001543 -0.185622
0.367552 -0.003823 -0.086097
-0.214557 -0.111372 0.336112
-0.058652 0.026965 -0.336968
0.321485 0.103440 0.343278
-0.284235 -0.017729 0.057183
0.267833 -0.017207 -0.287261
0.023578 0.044809 0.401926
-0.305040 0.096305 -0.216176
0.369679 -0.040316 0.004471
-0.309200 0.001664 0.168438
0.076066 -0.049266 -0.388001
0.222717 -0.079676 0.271600
-0.479344 0.009267 -0.144224
0.323316 -0.120803 -0.086112
-0.135274 -0.029440 0.343145
-0.153788 -0.068990 -0.315210
0.394846 -0.019884 0.138292
-0.375663 -0.015456 0.154390
0.204962 -0.057461 -0.456369
0.089338 0.045514 0.334311
-0.373787 0.048764 -0.123316
0.444817 -0.038854 -0.158859
-0.287000 -0.038079 0.344050
-0.027790 -0.021079 -0.370046
0.250812 0.077990 0.328410
-0.388763 0.035126 0.023608
0.289727 0.000226 -0.289069
-0.034645 -0.145523 0.468170
-0.233522 -0.020081 -0.304397
0.321276 -0.042761 0.104162
-0.289728 -0.074172 0.222335
0.204450 -0.038851 -0.431902
0.167754 -0.153323 0.294558
-0.401369 -0.050394 -0.204825
0.341696 -0.092266 -0.012750
-0.185234 -0.096817 0.303382
-0.083794 -0.032078 -0.324293
0.339639 -0.008622 0.224751
-0.286045 -0.039690 0.103227
0.255658 -0.067737 -0.333971
0.046917 0.093200 0.365354
-0.318984 0.040780 -0.170765
0.423696 -0.080866 -0.115902
-0.357902 0.015635 0.220833
0.011587 -0.047035 -0.407653
0.228436 -0.053870 0.278358
-0.471826 0.041566 -0.072799
0.286846 -0.088954 -0.208168
-0.136862 -0.114190 0.394539
-0.193732 -0.041223 -0.315060
0.377736 -0.052688 0.178947
-0.381662 -0.047718 0.136528
0.240953 -0.057721 -0.414118
0.101716 -0.048080 0.322280
-0.381673 -0.049814 -0.172477
0.375695 -0.058807 -0.123444
-0.235364 -0.121276 0.361694
-0.038166 -0.103534 -0.351552
0.232155 -0.022724 0.263715
-0.307218 0.021037 0.067938
0.339182 -0.057664 -0.274488
0.000189 -0.103394 0.429532
-0.238965 -0.055047 -0.279642
0.365534 -0.075851 0.059588
-0.286175 -0.063181 0.223082
0.144693 -0.010358 -0.458117
0.201950 -0.144169 0.286967
-0.415972 -0.046469 -0.154741
0.308302 -0.133887 -0.089185
-0.184563 -0.074169 0.337001
-0.135024 0.004042 -0.315921
0.368365 -0.096608 0.184404
-0.341933 -0.090597 0.103547
0.212335 -0.023866 -0.363272
0.060807 0.049007 0.346078
-0.348168 -0.053865 -0.198869
0.398972 -0.065563 -0.192578
-0.373351 -0.045788 0.297796
-0.031854 -0.167565 -0.396901
0.197496 -0.071175 0.293472
-0.415617 0.052270 -0.011621
0.309487 -0.070066 -0.235810
-0.117105 -0.167097 0.416885
-0.200340 -0.075001 -0.310095
0.379563 -0.063544 0.222476
-0.336470 -0.054689 0.120193
0.270942 -0.075003 -0.428657
0.139494 -0.106009 0.314088
-0.386154 -0.094742 -0.176821
0.346255 -0.115931 -0.080625
-0.171095 -0.128840 0.374650
-0.073206 -0.068203 -0.329392
0.254283 -0.152427 0.192332
-0.286661 -0.046388 0.091257
0.296055 -0.019872 -0.356071
0.035750 -0.057991 0.381861
-0.253241 -0.144243 -0.309670
0.390550 -0.063813 -0.074782
-0.329636 -0.093382 0.302861
0.038683 -0.071602 -0.486980
0.209358 -0.091277 0.332559
-0.396514 -0.036764 -0.079435
0.240731 -0.070535 -0.192465
-0.202682 -0.101828 0.407734
-0.169128 0.012625 -0.295311
0.395641 -0.115406 0.233852
-0.380562 -0.125657 0.074934
0.238053 -0.084683 -0.343537
0.090003 -0.060524 0.332664
-0.384541 -0.109939 -0.212266
0.370293 -0.094391 -0.123997
-0.315156 -0.102639 0.330143
-0.060803 -0.228146 -0.354527
0.178088 -0.149928 0.285137
-0.365848 0.005006 0.018638
0.363305 -0.092414 -0.307919
-0.072131 -0.133021 0.387425
-0.181943 -0.184397 -0.353034
0.391173 -0.052348 0.122381
-0.284713 -0.056137 0.177204
0.199586 -0.051601 -0.519329
0.188070 -0.079995 0.345313
-0.355229 -0.112258 -0.126172
0.274449 -0.075426 -0.164273
-0.147735 -0.114209 0.429877
-0.119551 0.015669 -0.291116
0.318911 -0.207832 0.185810
-0.317710 -0.131576 0.102500
0.206317 0.015325 -0.368979
0.070174 -0.112378 0.335148
-0.302497 -0.200773 -0.331645
0.379999 -0.084678 -0.091327
-0.370600 -0.171346 0.372795
-0.045612 -0.217684 -0.435867
0.193494 -0.067722 0.394424
-0.370389 -0.069522 -0.033565
0.256816 -0.091041 -0.216009
-0.201806 -0.118563 0.442201
-0.156654 -0.080749 -0.311426
0.403661 -0.088744 0.206479
-0.356732 -0.110989 0.065654
0.263221 -0.153329 -0.412061
0.147075 -0.136156 0.327828
-0.381275 -0.129327 -0.162053
0.357859 -0.105477 -0.112247
-0.218520 -0.088586 0.339554
-0.094694 -0.147153 -0.299515
0.222127 -0.216351 0.252474
-0.357077 -0.081820 0.046423
0.304041 -0.020659 -0.418775
-0.018243 -0.101689 0.326453
-0.188573 -0.279933 -0.411429
0.377686 -0.085021 0.009090
-0.275926 -0.111976 0.286584
0.068080 -0.112163 -0.521394
0.219284 -0.019472 0.411051
-0.304520 -0.153921 -0.082037
0.174893 -0.032040 -0.179865
-0.163097 -0.141117 0.495714
-0.134584 0.004446 -0.270918
0.373974 -0.174634 0.181751
-0.339111 -0.173526 0.104178
0.185135 -0.113517 -0.337000
0.117405 -0.231009 0.287607
-0.354754 -0.199245 -0.267198
0.404612 -0.150596 -0.032968
-0.348645 -0.205053 0.367571
-0.094074 -0.251841 -0.348357
0.202971 -0.100084 0.384938
-0.378414 -0.140065 -0.001463
0.313314 -0.130795 -0.312877
-0.164754 -0.083255 0.413126
-0.129083 -0.211210 -0.373249
0.366442 -0.110127 0.085419
-0.302216 -0.090842 0.116512
0.196328 -0.153729 -0.478302
0.209093 -0.137551 0.342883
-0.319393 -0.162208 -0.104991
0.266698 -0.041199 -0.152640
-0.148414 -0.067929 0.367608
-0.117244 -0.078606 -0.264315
0.306859 -0.213025 0.202427
-0.364337 -0.151368 0.075638
0.182512 -0.036757 -0.387279
0.036482 -0.159275 0.263201
-0.240075 -0.295681 -0.381562
0.390872 -0.197124 0.015416
-0.290192 -0.205731 0.350077
-0.036193 -0.199117 -0.421493
0.231970 -0.018166 0.419935
-0.289628 -0.224898 -0.053428
0.184876 -0.135774 -0.156480
-0.171337 -0.171552 0.504497
-0.114487 -0.102600 -0.303043
0.351433 -0.158705 0.120729
-0.317872 -0.166476 0.121270
0.187955 -0.209770 -0.359476
0.172052 -0.303899 0.259125
-0.352406 -0.187759 -0.159533
0.412644 -0.133983 -0.078663
-0.269505 -0.156132 0.325100
-0.113891 -0.193287 -0.298119
0.262243 -0.154844 0.282165
-0.415051 -0.198962 0.033825
0.264672 -0.102716 -0.373757
-0.099726 -0.071217 0.351790
-0.139118 -0.277824 -0.385790
0.327212 -0.230679 0.033797
-0.268324 -0.130270 0.193893
0.081382 -0.177843 -0.421834
0.238164 -0.125595 0.344614
-0.248735 -0.224262 -0.080246
0.162402 -0.098873 -0.090811
-0.121561 -0.111766 0.390165
-0.113275 -0.124225 -0.281880
0.333698 -0.194496 0.161317
-0.341788 -0.174977 0.100106
0.127305 -0.174706 -0.313105
0.087905 -0.252986 0.236480
-0.292748 -0.259006 -0.261040
0.461540 -0.245517 -0.026647
-0.269880 -0.242866 0.323298
-0.079298 -0.199431 -0.345414
0.248130 -0.109243 0.312447
-0.338618 -0.280185 -0.016397
0.249420 -0.201609 -0.225508
-0.136863 -0.175651 0.440008
-0.103789 -0.197801 -0.323395
0.267097 -0.236297 0.091676
-0.285234 -0.180341 0.178092
0.142552 -0.203955 -0.351405
0.196887 -0.289177 0.270428
-0.292307 -0.204099 -0.093292
0.313792 -0.128383 -0.089685
-0.187236 -0.125080 0.303636
-0.110131 -0.197489 -0.319667
0.308616 -0.204558 0.196988
-0.425660 -0.211286 0.053779
0.162817 -0.166452 -0.302038
-0.022619 -0.136912 0.312711
-0.190302 -0.266649 -0.301221
0.378758 -0.308752 -0.009247
-0.249007 -0.197144 0.218489
0.006124 -0.202437 -0.337861
0.221971 -0.172041 0.288452
-0.239018 -0.277187 -0.060875
0.184390 -0.235466 -0.093345
-0.102786 -0.185180 0.361765
-0.106634 -0.213308 -0.303345
0.257666 -0.222474 0.188790
-0.292279 -0.203558 0.148455
0.124141 -0.202656 -0.305574
0.115699 -0.279091 0.281048
-0.298178 -0.230041 -0.154541
0.459443 -0.208134 -0.108600
-0.201489 -0.222719 0.266600
-0.075942 -0.193459 -0.364234
0.262125 -0.224565 0.201114
-0.406554 -0.280976 0.011914
0.234203 -0.209881 -0.245693
-0.059554 -0.197887 0.350747
-0.133949 -0.223562 -0.268612
0.251200 -0.290145 0.066261
-0.277349 -0.248971 0.237014
0.080314 -0.214698 -0.298653
0.162943 -0.242704 0.299778
-0.237896 -0.232195 -0.073123
0.228410 -0.241685 -0.064643
-0.132904 -0.189465 0.304563
-0.104566 -0.272322 -0.353996
0.272904 -0.226463 0.237052
-0.374185 -0.216774 0.069368
0.127340 -0.223216 -0.277703
0.045493 -0.219718 0.330272
-0.237341 -0.239888 -0.206830
0.452290 -0.258684 -0.110025
-0.202364 -0.220868 0.180270
-0.007147 -0.209688 -0.342218
0.186407 -0.248071 0.221260
-0.295835 -0.282941 -0.036372
0.251550 -0.247327 -0.185447
-0.060929 -0.235104 0.297154
-0.127906 -0.253339 -0.260489
0.194423 -0.221938 0.199593
-0.268768 -0.296953 0.229408
0.112634 -0.169053 -0.317215
0.099749 -0.234720 0.360355
-0.267835 -0.230848 -0.117786
0.347387 -0.254554 -0.091649
-0.123078 -0.258797 0.251053
-0.064797 -0.250680 -0.406978
0.251530 -0.257319 0.215738
-0.414826 -0.257549 0.016931
0.186051 -0.259052 -0.233354
0.029454 -0.248631 0.295761
-0.182128 -0.223597 -0.204638
0.331648 -0.235118 -0.037616
-0.275855 -0.303800 0.242411
0.049530 -0.268080 -0.290139
0.106324 -0.225571 0.296818
-0.240037 -0.245941 -0.063343
0.256042 -0.264830 -0.157337
-0.099090 -0.291826 0.312360
-0.121444 -0.314977 -0.315179
0.222019 -0.180442 0.268413
-0.301581 -0.289049 0.118673
0.142304 -0.161520 -0.352135
0.082317 -0.255451 0.362218
-0.249767 -0.250713 -0.186107
0.395480 -0.259714 -0.094470
-0.124368 -0.243649 0.152862
-0.001386 -0.248286 -0.376883
0.182547 -0.265911 0.201894
-0.344238 -0.265551 -0.020474
0.246479 -0.260568 -0.211233
-0.010123 -0.251837 0.261806
-0.162764 -0.253856 -0.204884
0.241300 -0.173591 0.080738
-0.295394 -0.400831 0.283332
0.084974 -0.238085 -0.319777
0.072233 -0.217216 0.353774
-0.246996 -0.258404 -0.116661
0.283365 -0.275624 -0.122997
-0.071623 -0.376172 0.283113
-0.077326 -0.296738 -0.360708
0.256635 -0.198641 0.227744
-0.346253 -0.285000 0.035772
0.181453 -0.237592 -0.311348
0.081689 -0.272951 0.279510
-0.204904 -0.260730 -0.220351
0.337193 -0.247316 -0.041514
-0.244370 -0.309366 0.212758
0.031272 -0.337017 -0.296982
0.119518 -0.250540 0.220996
-0.268510 -0.264822 -0.043702
0.276378 -0.243397 -0.207396
-0.082114 -0.341088 0.334544
-0.142624 -0.292297 -0.238314
0.249295 -0.153723 0.142054
-0.279725 -0.396263 0.174104
0.133099 -0.175418 -0.394913
0.090494 -0.274466 0.308828
-0.236717 -0.310741 -0.207177
0.289508 -0.289797 -0.054614
-0.058513 -0.334999 0.183928
-0.023087 -0.287127 -0.316529
0.251656 -0.248393 0.155797
-0.316007 -0.286760 0.011051
0.208206 -0.314298 -0.220052
-0.001750 -0.233915 0.281209
-0.164505 -0.272198 -0.226672
0.264874 -0.242512 0.024747
-0.328374 -0.418181 0.262262
0.036155 -0.377131 -0.282560
0.106456 -0.283396 0.215402
-0.240249 -0.320026 -0.093032
0.278411 -0.248175 -0.162727
-0.060016 -0.457206 0.318155
-0.095271 -0.268335 -0.246280
0.299092 -0.207406 0.124804
-0.272596 -0.349830 0.075537
0.175478 -0.213949 -0.371784
0.062707 -0.257507 0.254348
-0.185997 -0.339782 -0.270332
0.247990 -0.312237 0.010046
-0.192860 -0.331693 0.203589
-0.018055 -0.378070 -0.221795
0.224557 -0.309482 0.118674
-0.254988 -0.317948 0.016201
0.216843 -0.357820 -0.132244
-0.099127 -0.321519 0.344486
-0.118299 -0.253267 -0.217810
0.246962 -0.267050 0.058854
-0.307702 -0.417870 0.158978
0.067263 -0.333178 -0.322601
0.092122 -0.308142 0.193110
-0.208979 -0.394813 -0.175754
0.256249 -0.287806 -0.087436
-0.043957 -0.419270 0.228334
-0.060086 -0.268438 -0.184086
0.311602 -0.285962 0.108441
-0.241525 -0.325362 0.069949
0.173974 -0.334124 -0.229463
-0.061956 -0.218011 0.282730
-0.115978 -0.308136 -0.269749
0.196452 -0.331079 0.022252
-0.316554 -0.386387 0.194655
-0.043159 -0.459963 -0.180775
0.175170 -0.341461 0.132211
-0.214527 -0.388443 0.000643
0.215760 -0.403276 -0.059634
-0.080648 -0.426158 0.283854
-0.070308 -0.207304 -0.172107
0.249654 -0.288142 0.082266
-0.248696 -0.350098 0.069632
0.113669 -0.322789 -0.295820
-0.007275 -0.258681 0.210178
-0.143206 -0.394571 -0.223383
0.219956 -0.339519 -0.061401
-0.159034 -0.378185 0.203065
-0.079572 -0.357819 -0.112534
0.252539 -0.310353 0.145521
-0.203004 -0.345932 0.109726
0.147974 -0.455190 -0.070740
-0.129609 -0.310626 0.251693
-0.051453 -0.225875 -0.212281
0.166617 -0.312338 -0.003734
-0.303965 -0.380636 0.076356
-0.020492 -0.456353 -0.193662
0.068370 -0.308105 0.172634
-0.176262 -0.417508 -0.039686
0.210661 -0.463877 -0.032017
-0.068361 -0.401496 0.206454
-0.062992 -0.229843 -0.107857
0.210127 -0.256713 0.119291
-0.195295 -0.313177 0.085780
0.130569 -0.382097 -0.182270
-0.106055 -0.294031 0.181226
-0.072193 -0.298948 -0.193087
0.188167 -0.363302 -0.104517
-0.249332 -0.404402 0.128112
-0.094279 -0.439306 -0.107872
0.134404 -0.283299 0.181318
-0.185172 -0.370492 0.118705
0.138518 -0.533244 0.009185
-0.080104 -0.372076 0.163370
-0.030469 -0.186938 -0.135995
0.144882 -0.258333 -0.024648
-0.219796 -0.357287 0.014934
0.056049 -0.425751 -0.185594
-0.029810 -0.338482 0.143451
-0.134514 -0.345072 -0.055620
0.197682 -0.501824 -0.065209
-0.129918 -0.402562 0.171688
-0.081489 -0.325981 -0.093130
0.131964 -0.236681 0.118087
-0.173866 -0.333618 0.123376
0.133453 -0.439073 -0.084175
-0.067422 -0.381571 0.107736
-0.050300 -0.219812 -0.124640
0.162931 -0.361007 -0.134981
-0.204463 -0.451695 0.033609
-0.014408 -0.442660 -0.144961
0.049428 -0.346233 0.129131
-0.179752 -0.346340 0.077149
0.143268 -0.529861 -0.006886
-0.057049 -0.381995 0.169518
-0.051517 -0.261432 -0.106283
0.119607 -0.277676 -0.027413
-0.155284 -0.406904 0.040885
0.134024 -0.400613 -0.151020
-0.001008 -0.422910 0.100377
-0.123136 -0.278896 -0.049502
0.157232 -0.471260 -0.080368
-0.126200 -0.486926 0.118453
-0.017760 -0.390172 -0.132436
0.086647 -0.346129 0.076201
-0.171017 -0.388339 0.082251
0.143286 -0.412116 -0.067367
-0.008910 -0.390627 0.174444
-0.070112 -0.282421 -0.099456
0.115880 -0.374530 -0.060289
-0.115046 -0.532853 0.034278
0.117168 -0.394641 -0.158845
0.052790 -0.413325 0.133245
-0.159032 -0.363861 -0.001578
0.112839 -0.404356 -0.034913
-0.053798 -0.458940 0.186822
-0.002011 -0.365033 -0.130845
0.071075 -0.355086 0.056815
-0.114567 -0.510705 0.027403
0.156276 -0.342385 -0.122257
0.011437 -0.379024 0.213123
-0.087998 -0.375543 -0.080460
0.061357 -0.335492 0.004925
-0.061282 -0.540276 0.097734
0.099009 -0.375607 -0.143087
0.018032 -0.332367 0.160451
-0.090054 -0.482321 -0.026352
0.090450 -0.295368 -0.059754
-0.032869 -0.405339 0.179170
0.013776 -0.403545 -0.108497
0.002643 -0.279873 0.073682
-0.041530 -0.486838 0.024437
0.066147 -0.332967 -0.079747
-0.022946 -0.333888 0.088297
0.000000 -0.357860 -0.000000
