ply
format ascii 1.0
comment Rock-like point cloud with natural distribution
element vertex 1000
property float x
property float y
property float z
end_header
-0.409663 0.192455 0.048321
0.222828 -0.099106 -0.445550
-0.056416 0.233592 -0.241572
-0.347489 0.058279 -0.008753
0.443233 -0.101792 0.091616
-0.374164 0.159820 -0.012403
-0.230913 0.113710 0.090102
0.152849 0.373643 0.126850
0.059350 -0.007825 -0.491810
-0.008885 -0.013762 -0.247438
0.352883 0.148576 -0.057754
-0.388941 0.035587 0.127768
0.120814 0.049716 0.003926
-0.019284 -0.033254 0.460256
0.241131 -0.100484 0.065871
0.232126 0.224422 -0.379702
0.102937 0.399077 0.145482
-0.000635 -0.402268 0.162447
-0.052035 0.260177 -0.221909
0.317778 -0.210898 0.180610
0.129601 -0.061199 0.252121
0.041840 0.018297 0.421335
0.282841 0.071015 -0.173422
0.126846 0.024304 0.285981
0.364629 -0.246423 -0.197193
-0.038039 0.249705 0.141965
0.444660 -0.001951 0.090425
-0.069660 0.439474 0.043895
-0.231024 -0.207670 0.056646
0.316478 -0.329910 -0.131830
0.110613 0.123476 0.215174
0.116942 0.432746 0.031330
-0.211320 -0.050423 -0.037173
-0.012314 0.440642 0.031735
-0.018223 -0.345745 0.242944
0.027085 -0.051252 0.096440
0.068781 -0.217562 -0.148588
0.137362 -0.164347 0.380308
0.242297 -0.181999 0.231518
0.196403 -0.087448 -0.354959
-0.309408 -0.036681 -0.168848
0.202005 -0.142563 -0.040276
0.106965 0.314157 -0.049828
-0.318823 -0.143153 -0.292505
0.165892 0.266589 -0.300544
-0.409703 0.054229 0.102549
0.001268 0.000953 -0.187982
0.209068 -0.232478 0.057768
-0.002765 0.315931 0.148139
0.119729 0.330069 -0.057714
0.149781 -0.311806 0.001520
-0.137511 -0.296658 -0.071401
-0.009955 0.211414 0.435742
0.009949 0.075407 -0.344916
0.270230 0.089394 0.336196
0.496993 0.068575 -0.015494
0.094231 0.029789 0.052243
-0.054876 0.107731 -0.432417
-0.096823 -0.076565 -0.004323
0.348910 -0.101039 0.182550
0.062822 0.105584 -0.114143
-0.188075 -0.124383 0.026102
-0.093639 0.006935 0.362887
0.099865 0.340795 -0.031741
0.270179 -0.088839 -0.150268
-0.100043 -0.145969 0.205401
-0.358785 0.029690 0.201107
0.006375 0.420826 0.017862
0.065778 -0.309583 0.260815
0.515088 0.070288 -0.051256
0.073745 -0.146147 0.388951
-0.098807 -0.468864 -0.135400
0.245764 0.119854 0.282123
0.011123 0.353593 -0.309133
0.263570 0.225495 -0.328809
0.217377 -0.380188 0.168318
-0.046144 0.006488 -0.080504
0.106384 -0.193365 -0.072306
0.201287 0.115820 -0.378251
-0.022104 0.003303 0.466297
-0.275515 0.208816 -0.103251
-0.163423 0.046248 -0.280350
-0.032568 -0.438295 0.354366
0.375745 0.041596 0.197096
-0.340012 -0.310930 -0.124460
-0.168637 -0.177471 0.048075
-0.007612 -0.001703 -0.157084
-0.162213 -0.418992 0.276038
-0.219121 0.044816 0.320100
0.043220 0.069975 -0.359233
0.027273 -0.108982 -0.002704
-0.138620 -0.032940 -0.040515
-0.141193 0.425141 0.035625
0.051809 0.276768 -0.367942
0.092213 0.358099 0.267506
0.223974 -0.178432 -0.001975
-0.511850 0.095757 -0.020920
0.165269 0.312533 -0.032958
0.149487 0.004289 0.338197
0.324797 -0.352706 -0.018776
0.345031 -0.335305 -0.131026
0.175498 -0.410172 -0.173198
0.129279 0.340648 -0.247001
0.195191 -0.190299 -0.047627
-0.399676 0.315155 -0.025392
0.038580 -0.067196 -0.325217
-0.198388 -0.266406 0.281180
0.005413 -0.435648 0.206678
-0.294799 -0.050590 -0.263973
0.441349 -0.078121 0.069597
0.367314 -0.327687 -0.002594
-0.158323 0.005705 -0.244700
-0.269844 -0.019107 -0.066793
0.293441 0.278218 0.146630
0.147125 -0.127092 -0.213274
0.118732 0.100435 0.093556
-0.241327 0.012723 -0.094384
0.216571 -0.051503 0.276524
-0.291210 -0.178593 -0.027774
-0.190860 0.461667 -0.001303
0.293810 0.096444 -0.057710
-0.098328 -0.000223 -0.104848
-0.015786 0.106702 0.369590
-0.042532 -0.246595 -0.009457
-0.106045 -0.438428 0.239596
-0.321610 0.040436 -0.213125
0.279697 0.079691 -0.440555
0.053126 0.294401 0.202880
-0.071923 -0.013184 0.413371
-0.208617 0.084454 0.411388
-0.268482 -0.007246 0.152755
0.011002 -0.009440 -0.225635
-0.155811 -0.064499 -0.398589
-0.304921 -0.396456 -0.070122
-0.296389 0.331343 -0.082266
0.101419 -0.257614 0.021952
0.139905 0.318433 -0.190147
0.122025 0.053405 -0.254140
0.240381 -0.333823 -0.064000
0.226557 0.000484 -0.307168
0.001246 0.109716 -0.074077
-0.007577 0.084358 -0.139370
0.384786 0.149180 0.049492
-0.000261 -0.035189 0.384705
-0.040175 0.004365 -0.051420
-0.106617 -0.142808 -0.084204
0.049773 0.138558 0.437641
-0.132064 0.198918 -0.294270
0.277958 -0.062633 -0.327339
-0.339453 -0.358242 -0.143850
-0.359546 -0.074819 0.179421
-0.385859 -0.269842 -0.101650
-0.043810 -0.440672 0.312610
-0.332027 -0.228015 -0.041945
0.072334 -0.381824 0.022903
0.440714 -0.020829 0.200656
-0.114658 -0.220998 -0.037348
-0.049443 -0.096270 -0.016678
-0.440170 0.019010 0.165169
-0.011951 0.439970 0.071207
-0.134796 0.200466 0.289064
-0.441504 -0.005742 0.168082
-0.425879 0.226246 -0.014030
0.223331 0.018928 -0.214339
-0.107417 0.349787 -0.305154
0.026074 -0.360478 -0.305019
-0.333166 -0.205744 -0.010356
-0.056357 -0.050965 -0.340300
-0.010832 -0.073425 -0.126950
0.068374 -0.402985 0.238300
-0.176275 -0.000776 0.313626
0.223910 0.226557 0.380659
-0.088751 -0.289997 -0.026771
-0.181877 0.291627 0.340407
-0.029546 0.039742 -0.427759
-0.190205 0.093506 0.144622
-0.314063 -0.172170 0.120236
-0.338267 0.085893 0.219826
-0.272837 -0.173152 -0.372527
0.131438 -0.125235 -0.019271
-0.038431 -0.195230 -0.421080
-0.057970 0.032598 -0.371088
0.024384 -0.012752 -0.105911
0.103340 0.257301 0.417465
-0.327243 0.105742 0.310762
0.070881 -0.247043 0.316422
0.187840 -0.266112 0.009981
0.096671 -0.258880 -0.012930
-0.305919 -0.168000 0.324453
-0.045686 0.014729 -0.112925
0.290432 0.293787 0.221032
-0.243185 -0.252806 0.048495
0.294435 -0.256345 -0.295379
0.215726 -0.147686 -0.074443
0.383005 -0.170291 0.235011
-0.218248 -0.178944 0.298532
0.459243 0.153308 -0.087354
0.070208 -0.073994 -0.026229
-0.030876 0.432289 0.119628
0.296587 0.260119 -0.164446
-0.343559 0.360766 -0.031741
-0.267563 -0.250806 0.298457
0.275136 0.118448 -0.132227
-0.005144 0.383204 0.205501
0.028835 -0.006203 0.447798
0.110642 -0.106052 -0.018261
0.351643 -0.210665 -0.031727
-0.246037 0.205309 -0.200346
0.180958 -0.369857 0.092738
-0.067576 -0.028489 -0.211853
0.267238 0.424549 -0.082429
0.109509 0.258820 0.327464
-0.172498 -0.046399 0.360435
-0.195948 0.357358 0.016182
-0.068138 0.016692 0.450673
-0.092363 0.062498 -0.150623
-0.012316 0.239333 0.029655
0.062215 0.000920 -0.149970
-0.246309 0.014057 -0.069566
-0.311406 -0.292315 0.206476
-0.014998 -0.163514 0.255236
0.026279 -0.185643 0.002528
0.356825 0.022254 0.113106
-0.426989 0.283933 -0.070267
-0.053266 0.020185 -0.026385
-0.230148 0.029049 -0.369328
0.120717 -0.249283 -0.014922
-0.176806 -0.006413 0.376631
-0.414841 -0.315772 -0.118507
0.072216 -0.389743 0.039098
-0.046863 -0.014651 0.454345
-0.019072 0.033283 -0.106457
-0.333239 -0.128112 -0.352452
0.117624 0.204923 0.177058
-0.250904 -0.380129 0.176461
-0.078134 -0.358806 0.047187
-0.009015 -0.012382 -0.179907
-0.195361 -0.026920 -0.261762
0.036495 0.203175 0.439442
0.179228 0.353077 -0.015454
0.058120 -0.367687 0.073979
-0.017160 -0.431654 0.371435
-0.032131 -0.065042 -0.013952
0.127486 0.427018 -0.109309
-0.237584 -0.036920 -0.396948
0.092516 -0.431903 0.298710
-0.019362 0.392904 0.247581
0.161469 0.152078 -0.255678
0.030482 -0.175444 -0.228350
-0.242900 0.237441 -0.140928
-0.413924 0.032131 0.141428
-0.034749 0.141658 -0.040773
0.190794 0.137955 0.133135
0.148453 0.082119 -0.371767
0.431386 -0.219332 -0.251635
-0.139455 0.193549 -0.389111
0.213480 -0.330254 -0.267717
0.256184 0.208624 0.239739
0.253528 -0.217420 0.047626
-0.259677 0.053307 0.008929
0.398230 -0.214884 -0.277552
-0.434651 0.026602 0.230096
0.020281 -0.001578 -0.157054
0.438593 0.032732 0.106553
-0.127651 0.371213 0.089523
-0.083967 0.011762 -0.460525
0.342028 -0.078921 -0.251558
-0.256458 0.336572 -0.066061
-0.352223 0.147784 0.244516
-0.086036 -0.128680 0.071342
0.239176 0.119770 0.389447
0.255793 0.033146 0.276387
-0.312745 -0.291183 0.035579
0.058891 -0.071860 -0.024012
-0.351716 -0.108710 0.336236
0.218058 -0.043525 -0.141633
0.256908 0.233932 -0.394060
0.116211 -0.164644 0.169760
0.384500 -0.054224 0.337843
-0.463752 -0.156443 -0.116726
-0.067286 -0.033365 -0.106670
-0.372705 0.277096 0.058985
-0.000534 0.011254 -0.276613
0.352544 0.130629 -0.052285
-0.395623 0.188928 -0.134289
0.113378 0.082221 -0.398454
-0.008510 -0.174811 -0.342848
-0.001415 0.439431 0.041263
0.116667 -0.115739 0.266466
-0.057378 0.135841 0.052498
0.087141 -0.019627 -0.240535
0.026041 0.060347 0.437298
0.014376 0.032967 -0.086146
-0.264421 -0.023451 0.236122
0.211544 0.015237 0.386872
-0.015160 0.430265 0.146566
-0.288263 -0.016511 0.367363
0.123191 -0.490072 -0.024139
-0.408023 0.064510 0.190850
0.166654 -0.131321 -0.016721
-0.046117 0.005111 0.083873
-0.260680 -0.246921 0.307509
0.431666 -0.028509 0.183244
-0.142945 0.115737 -0.371585
0.014755 -0.166387 -0.218937
0.323914 0.104215 -0.394486
-0.095675 0.391122 0.236749
0.089901 -0.213018 0.002133
-0.285162 -0.078143 0.369581
0.081161 -0.063470 -0.150952
0.264159 -0.274254 0.009033
-0.154762 0.250772 0.346717
-0.032461 0.428564 0.028219
-0.008489 -0.421053 0.141287
0.025642 -0.401610 0.374786
-0.216358 -0.181193 0.002434
-0.259226 0.315600 0.082216
-0.281463 -0.000865 0.186979
0.306081 -0.315930 0.214004
-0.061628 0.217507 0.433506
0.403651 0.000747 0.216177
-0.245403 -0.113228 -0.151665
0.054073 0.379897 0.004797
0.007190 0.012839 -0.128139
-0.015182 0.000097 -0.085444
0.235688 -0.411488 -0.021683
-0.046198 -0.237317 0.358997
0.337884 0.072370 -0.195232
0.099205 -0.041965 -0.077310
0.079450 0.443272 0.007102
0.423128 -0.033786 0.196107
-0.073961 -0.211636 -0.507436
0.387478 0.252681 -0.159388
0.402279 -0.161737 0.257192
-0.097809 -0.154835 -0.028993
0.259239 0.272016 0.032163
0.285385 -0.024149 0.266883
-0.101827 -0.154509 -0.223210
0.252901 -0.234045 -0.295953
-0.057716 0.440172 0.025728
-0.179762 0.330242 0.172163
0.117469 0.228941 -0.290586
0.108055 0.261589 -0.381946
0.250726 -0.185853 -0.213571
0.144963 0.315665 0.257515
0.002371 -0.000126 0.471868
0.030310 0.111086 -0.068277
-0.220406 0.230772 -0.186778
0.205358 -0.080042 0.261715
0.376970 0.160995 0.090850
0.155303 -0.248300 -0.040545
-0.261553 -0.327726 0.205933
0.296149 0.111227 -0.005507
0.256754 -0.373456 0.174384
-0.308754 0.281748 -0.068338
-0.101227 0.071013 0.435295
0.373884 0.183081 0.062744
-0.123944 -0.391299 0.208654
-0.106061 0.006258 -0.277011
0.333184 0.285882 -0.063717
0.001026 -0.003274 -0.200509
0.034022 -0.404182 0.338216
0.406891 0.009986 0.135377
0.093674 -0.083612 0.009398
-0.389082 -0.099120 -0.248335
-0.442761 0.061900 0.104631
0.053095 0.128167 -0.101713
0.296331 0.377119 -0.004709
-0.294036 0.299022 -0.105574
0.011360 -0.077104 -0.286893
-0.303228 0.133620 0.226554
-0.178849 0.021657 -0.351499
0.106141 0.341467 0.204766
0.178561 0.147558 -0.433351
-0.273855 0.063285 -0.221122
0.053813 -0.242255 -0.010209
-0.294209 -0.339970 0.175705
-0.037290 -0.006108 0.312220
-0.310016 -0.158880 -0.345262
-0.176052 0.051541 -0.460490
-0.161652 0.304353 0.055678
-0.256696 -0.035278 0.301752
0.489886 -0.012700 -0.100523
0.322460 0.163374 0.165157
0.059369 0.360897 0.112916
0.436021 -0.151277 -0.109279
0.009379 -0.182185 0.013520
0.258519 -0.374235 -0.029174
0.093679 -0.202265 0.080199
0.222845 -0.436700 -0.051341
-0.440218 0.012211 0.121931
-0.001803 -0.267778 0.342971
-0.053344 -0.325317 0.304636
0.143088 0.246785 -0.085731
-0.144472 0.073256 -0.275052
0.031790 0.000018 0.472317
0.340905 -0.246850 -0.138135
-0.325397 0.017430 0.266990
0.240720 0.219484 -0.044502
-0.276540 -0.059711 -0.083398
0.220860 0.235758 -0.188301
0.256750 -0.354840 0.020410
0.311239 0.089214 -0.349454
-0.325578 0.293997 0.157379
-0.025261 -0.114378 0.187747
0.394810 -0.244093 -0.201953
0.370105 0.143038 0.240520
0.156359 -0.330386 -0.032503
-0.057466 -0.416929 0.365205
0.109640 0.227937 -0.325678
-0.324915 -0.090147 0.210811
0.078658 0.065297 -0.123397
-0.073904 -0.135979 -0.088312
-0.441936 -0.002406 0.192297
-0.109374 -0.056515 -0.177155
0.190517 -0.166309 -0.046242
-0.153043 0.215894 0.349070
0.270668 -0.347601 0.057290
-0.086063 -0.052409 -0.065828
0.119323 -0.154910 0.003529
0.149364 0.330044 0.164689
-0.238695 -0.030720 -0.002815
0.069477 0.011585 -0.192234
-0.014222 0.092165 -0.131711
0.007266 -0.434892 0.322597
0.144040 0.391255 0.074300
-0.109029 0.309898 -0.394632
0.477280 -0.153837 -0.219454
0.408838 -0.082108 0.189128
0.388581 0.162358 -0.083743
0.003513 -0.145483 -0.085378
0.129288 0.372906 0.191364
0.365040 0.285888 -0.054059
0.048257 0.337420 0.311476
-0.042821 0.268015 -0.449339
-0.250168 0.107959 -0.024967
-0.161045 -0.188434 0.301618
-0.256512 -0.036612 -0.090846
0.043873 0.000595 -0.120279
-0.034180 0.409196 0.143425
0.043558 -0.000146 -0.159094
0.024499 0.013105 -0.064828
0.149792 -0.027268 -0.387289
-0.000774 -0.124767 -0.014130
0.309569 0.058434 -0.282736
-0.115221 -0.192715 -0.419467
-0.105955 -0.097387 -0.013830
0.166382 0.411236 0.116730
-0.015856 -0.113237 -0.023731
0.357174 -0.270844 -0.008663
0.247906 -0.136064 0.063016
0.000643 -0.105018 -0.097531
-0.236702 0.202737 0.045714
-0.001623 -0.000061 0.488049
-0.186216 -0.150761 0.227935
-0.295411 0.332842 -0.038178
-0.180045 0.213832 -0.291564
0.018484 0.442424 0.056308
0.418546 -0.153905 0.002435
-0.080166 -0.429816 0.321712
0.362169 0.320980 -0.144466
0.002063 -0.058156 0.433207
-0.047912 -0.035725 -0.273266
-0.001827 0.000621 -0.159812
0.210768 0.356603 -0.197144
-0.173628 0.063555 -0.338506
-0.034945 0.038859 0.443238
0.071298 -0.057139 -0.104443
0.215475 -0.279008 -0.215208
-0.161775 0.198749 -0.441694
0.302107 -0.207240 0.315629
-0.310881 -0.234571 0.162533
-0.048409 -0.422371 0.119316
-0.304620 0.151232 0.133767
0.236688 -0.232301 0.256793
0.258048 0.131768 -0.127182
0.033184 0.350337 -0.030013
0.037144 0.403913 0.052307
-0.347429 -0.082325 0.231601
-0.314184 -0.040994 0.215205
0.090486 0.359377 -0.113386
0.167997 0.338768 0.249734
0.093802 -0.352421 0.049629
-0.138965 -0.423192 0.292143
0.238759 -0.090715 -0.204471
0.094229 -0.438354 0.303634
-0.251580 0.145886 0.067248
0.209382 0.472741 -0.027871
-0.385022 -0.030093 0.225757
0.232500 0.045362 0.272798
0.276819 -0.315403 0.155009
-0.360377 0.147762 0.161406
-0.234889 -0.045637 -0.067152
0.257336 0.165363 -0.306429
0.322947 0.038798 -0.420207
0.339958 0.024270 0.169483
0.053530 -0.033182 -0.084709
-0.158912 0.452316 -0.089634
-0.022112 -0.356133 0.301909
0.203825 -0.312430 -0.316903
0.013543 0.113397 0.433626
-0.470423 0.133534 -0.003901
0.014385 -0.137660 -0.213398
0.068010 -0.116680 -0.160180
0.232453 -0.100329 -0.058588
-0.310723 0.209043 0.071866
-0.195560 0.418820 0.081660
0.270655 0.084983 -0.293699
-0.331955 0.032103 -0.350932
-0.053735 0.068536 -0.309225
0.040072 -0.075379 -0.017380
0.111409 -0.077783 0.404622
-0.156520 -0.228998 -0.015309
0.344523 -0.343721 -0.094765
0.389966 -0.117913 0.287164
0.054630 -0.133819 0.231512
0.369538 0.196232 0.008458
-0.441353 -0.028699 0.207872
-0.334479 0.130930 0.306885
0.294152 0.339059 0.099118
0.046079 -0.135559 -0.005979
0.151650 -0.044022 -0.209410
-0.143452 -0.190476 -0.150024
-0.012101 0.036807 -0.071466
0.434510 0.071819 0.118027
0.352062 0.036263 -0.319520
0.213738 -0.310724 0.249007
-0.101671 -0.454287 -0.181357
-0.073271 0.417744 0.020877
-0.436527 -0.062339 0.189993
-0.390663 -0.081660 -0.283350
-0.054987 0.134401 0.303021
-0.080150 0.059518 0.407237
0.418991 -0.214615 -0.284258
0.391726 0.172764 -0.029692
-0.067046 0.335392 0.273458
-0.042748 -0.328284 0.008036
0.223685 -0.104293 -0.334978
0.048366 0.311502 -0.349095
-0.123289 0.224990 -0.432046
-0.423713 -0.075788 0.279948
0.297061 -0.217591 -0.288182
-0.053634 0.008965 -0.290699
-0.390936 0.013335 0.137366
0.058895 0.005579 -0.000550
-0.108901 0.254400 -0.117800
-0.251905 -0.307513 0.025266
-0.015927 -0.065169 -0.016726
-0.440852 -0.016815 0.180725
-0.195942 0.119173 -0.167308
-0.196671 0.264417 -0.232158
-0.280148 0.051616 -0.079355
0.266719 0.329073 -0.052909
-0.394132 0.005069 0.138605
0.004772 -0.001735 -0.123815
0.066769 0.144645 -0.383786
0.384337 -0.058720 0.029955
-0.115314 0.429167 0.039450
0.060596 -0.087291 0.344244
-0.108037 0.132607 -0.447628
-0.014651 0.118840 -0.406063
0.103510 0.194707 0.396268
0.287641 -0.077286 -0.257246
-0.337700 0.259664 0.140578
0.221272 0.007504 -0.125869
-0.363630 0.155831 -0.104434
-0.148091 -0.338050 -0.011457
0.230102 0.215245 0.150899
0.345079 0.179563 0.030519
-0.000213 0.364293 -0.100377
0.156882 0.002070 -0.035928
0.270565 0.303214 0.158171
-0.298724 -0.056651 -0.248584
-0.279585 -0.108521 0.187922
-0.340139 0.228624 0.137627
-0.166142 -0.257293 0.300971
0.029947 -0.063211 -0.051883
-0.152661 -0.393759 0.319548
-0.028347 -0.357070 0.019366
0.283707 -0.057377 0.352814
0.270486 0.388535 -0.110389
-0.009659 -0.090684 -0.009187
-0.079662 -0.164391 0.326311
-0.188872 0.163394 -0.379083
-0.181682 0.001614 0.028567
-0.426982 -0.003503 0.250526
0.276704 -0.213778 -0.290423
0.009416 -0.415232 0.371396
-0.014584 0.436678 0.006788
0.133097 0.123869 0.414134
-0.142262 -0.226008 -0.013258
-0.010002 0.334451 0.327179
0.020088 0.062654 0.438447
-0.135301 -0.309981 0.314257
0.093432 0.003131 -0.180768
0.233440 -0.206049 -0.377135
0.218590 0.363335 -0.023854
-0.305025 0.103772 -0.028199
0.295993 -0.037270 0.337848
-0.025854 -0.004325 -0.110673
-0.121491 -0.234847 -0.398302
-0.068052 -0.058500 -0.277537
-0.165411 -0.086131 -0.210387
0.257855 -0.034716 0.380327
-0.361824 -0.073546 0.333852
-0.451893 0.029212 0.036321
-0.217820 0.306457 -0.284498
-0.323539 0.122359 -0.267235
0.179952 0.008908 0.407978
-0.022483 -0.271121 -0.217489
-0.379717 -0.040580 0.015993
0.093303 0.167912 0.047860
-0.103218 0.424724 0.025480
-0.229800 -0.212754 -0.044218
0.121250 -0.160982 0.007005
-0.030999 0.025274 -0.349081
-0.174617 0.344432 -0.197374
0.072309 -0.438902 0.231723
0.061071 0.345289 -0.272378
0.411832 -0.005088 0.150910
-0.347608 -0.154927 -0.244673
-0.178613 -0.107701 -0.136889
-0.023110 -0.404354 0.303477
-0.433450 -0.145086 0.161402
-0.194424 0.305116 0.143456
0.094300 0.001553 -0.190245
0.063995 -0.015081 0.036427
0.438840 0.000905 0.156101
0.258624 0.272917 0.154994
-0.251851 -0.089241 0.060981
0.406083 -0.067149 0.160326
-0.425670 -0.058087 0.187389
-0.223285 0.349558 0.267621
-0.230327 -0.329054 -0.202345
-0.279157 0.183669 -0.356613
-0.415393 0.033096 0.186217
0.213641 0.050886 -0.311250
0.394271 0.234111 -0.005922
0.439383 0.034764 0.147956
0.179242 -0.197546 0.048497
-0.167531 0.406212 0.067111
0.001959 0.000563 -0.153817
-0.251452 0.092908 0.341971
-0.057650 0.227711 -0.217893
0.209134 -0.398903 -0.216206
0.076996 -0.068435 0.250864
-0.094656 0.311861 0.287139
-0.388490 -0.058990 0.213481
-0.137652 -0.300258 0.145446
-0.434289 -0.002398 0.129685
0.048778 0.057815 -0.180592
-0.437992 0.054403 0.128872
0.072543 -0.418564 0.347967
0.314673 -0.097319 -0.272905
0.281497 0.283708 -0.025151
0.146098 0.164339 -0.327919
-0.171443 -0.043445 -0.140937
-0.405861 -0.128849 0.293984
-0.194011 0.239519 -0.362885
0.056865 -0.124385 0.052974
-0.318288 -0.285940 0.199182
-0.200298 0.345488 -0.050614
-0.294305 -0.010611 -0.184052
0.436566 0.052468 0.188139
-0.098752 0.430837 0.034550
-0.080093 0.064953 -0.410867
0.349646 -0.223365 0.220337
-0.096730 0.109144 -0.380689
0.237939 0.209836 0.093825
0.120680 -0.270019 0.030073
-0.169230 -0.215334 -0.362761
-0.041601 -0.440947 0.159234
-0.428810 0.169194 -0.058483
0.140342 -0.292100 0.143824
-0.162037 -0.332857 0.041037
0.411838 0.065043 0.089208
-0.006775 0.006396 0.475186
-0.023720 0.189139 -0.439952
0.016994 0.182048 0.018398
0.065486 -0.141217 -0.000351
-0.051337 0.199534 0.225419
0.235628 0.130946 0.317223
-0.326668 0.277544 0.011219
0.025804 -0.161897 0.005596
0.234325 -0.115996 -0.378366
-0.111754 0.225232 0.409521
-0.077802 0.449592 0.009972
-0.327206 -0.159564 0.202385
0.010165 0.003294 -0.191595
0.223608 -0.286932 0.084356
0.308422 -0.046066 0.184665
0.147832 -0.054202 -0.412354
-0.045104 0.312694 0.205688
-0.007201 0.003606 -0.144084
-0.047077 -0.077385 0.288798
0.105018 -0.438880 0.166658
-0.235604 0.211210 0.037737
0.263504 0.395898 0.049448
-0.403341 0.095898 -0.177840
0.001660 0.137772 -0.420213
-0.007075 -0.076112 -0.027369
0.438908 0.030343 0.157729
0.253030 0.176607 -0.241106
-0.121156 0.342680 0.202681
-0.375665 -0.032597 -0.027509
-0.023056 -0.010498 -0.272177
-0.213117 -0.346401 -0.023979
-0.150245 0.041584 0.402349
0.170361 -0.323624 0.115657
-0.013998 0.025456 -0.185758
-0.169502 -0.475037 -0.087222
-0.257905 -0.253112 -0.263757
0.328394 0.115234 -0.047426
0.063793 0.083157 0.407819
0.305004 0.131683 -0.058825
0.437961 0.009366 0.204948
0.066062 -0.248537 -0.214328
0.412187 0.037528 0.070038
-0.026994 0.127411 -0.397057
0.162110 0.423002 0.127500
0.238317 -0.290819 0.121010
0.115567 -0.008644 -0.327161
-0.151654 0.303706 0.102356
0.266745 0.050211 -0.458027
0.246299 -0.077582 -0.100583
0.206532 -0.139939 0.340700
0.001883 -0.004516 0.430861
0.014310 -0.182128 -0.122376
0.029952 -0.148013 -0.068457
-0.087660 0.077292 0.414324
0.439877 -0.004798 0.131408
-0.007558 -0.440023 0.280039
-0.245389 -0.145005 -0.375184
0.002387 -0.068975 0.042645
-0.167230 0.431042 0.049811
0.121599 -0.174198 -0.374546
-0.056272 0.039015 -0.265386
0.409498 0.036113 0.233996
0.279934 -0.094665 0.353037
0.007537 -0.259649 -0.219284
0.117095 0.256560 0.097979
-0.103303 -0.403573 0.111916
-0.018907 0.269188 -0.410593
-0.302548 -0.353287 -0.117550
-0.168143 0.345132 0.234697
0.408852 -0.086389 0.264896
0.315900 0.032721 -0.052656
-0.323495 -0.148838 0.217459
0.082047 0.124149 -0.395509
-0.046847 -0.264948 -0.131003
0.335535 -0.157236 0.221269
0.016092 0.013252 -0.268765
0.389571 -0.200896 0.071982
0.240072 0.349427 0.215234
-0.331450 -0.174544 0.212548
-0.138215 0.102046 -0.098706
0.087869 -0.102216 -0.009859
0.026142 0.244921 0.428046
0.326959 0.002223 0.314566
0.030899 -0.053849 -0.191524
0.167871 -0.253818 0.321981
-0.049475 0.003006 -0.200805
0.053150 0.019749 -0.211588
0.101351 -0.219099 -0.004935
0.235630 -0.034443 0.029862
0.395113 -0.106837 0.104927
-0.340675 -0.089619 -0.386290
0.170592 0.082293 -0.026546
0.128890 -0.138478 0.352611
0.067967 0.070791 -0.209635
0.217670 -0.031085 0.087646
0.156799 -0.252542 0.030024
-0.148499 0.396727 0.195252
0.399094 0.187495 -0.030590
-0.065087 -0.271104 -0.325206
-0.081651 0.438287 0.018089
-0.035518 0.441798 0.063799
-0.382242 -0.099574 -0.278469
0.055949 -0.197815 0.000307
0.315519 0.312603 0.168252
0.171734 -0.156565 0.016507
0.227340 0.248003 -0.221561
0.031320 -0.433984 0.114207
0.435183 0.224555 0.002942
0.044577 -0.462096 -0.016176
0.052963 0.427131 0.062266
0.061883 0.136813 -0.005795
-0.407844 0.109280 0.148003
0.175272 -0.176112 -0.212469
-0.254827 -0.367703 -0.206682
-0.239809 0.185160 -0.393893
-0.058565 -0.222018 -0.274895
-0.077973 -0.434259 -0.001911
0.136856 -0.245085 -0.183777
0.344328 0.020714 -0.016149
0.454105 -0.051620 -0.227690
0.014198 -0.441662 0.285443
0.142612 0.332774 0.340262
-0.196612 0.032002 -0.206068
0.019899 0.429414 0.006395
-0.121403 -0.254178 0.004254
-0.466275 0.095337 0.003383
0.002404 -0.011910 -0.317753
0.163361 0.227688 -0.330130
-0.098648 0.234864 -0.351174
-0.231833 -0.139821 0.139167
-0.025745 -0.030093 -0.034147
-0.250092 -0.263582 0.246071
0.288298 0.036382 -0.204673
0.171378 -0.000495 -0.153311
-0.334381 0.020470 0.189101
-0.135107 0.359165 -0.175135
0.232347 -0.052141 -0.090041
-0.195415 -0.211696 0.052745
-0.115393 -0.089874 -0.425755
0.038733 -0.457288 -0.135030
-0.160148 -0.255436 -0.000864
-0.169271 -0.421234 -0.243713
0.124734 -0.182044 -0.064793
-0.245981 -0.060594 -0.220706
0.248280 -0.108836 -0.353927
-0.035242 -0.338224 -0.418308
0.366318 -0.114745 0.214240
0.435878 -0.001603 0.105933
-0.409441 -0.199899 -0.056541
-0.340242 -0.287006 -0.187874
-0.153015 -0.259439 0.289022
-0.240867 -0.228600 -0.017315
0.140417 -0.349907 -0.103950
0.249797 0.399139 0.083674
0.392569 -0.159751 0.039036
0.018683 -0.001057 -0.155650
0.013038 -0.027907 0.473116
0.168985 -0.380451 -0.237528
0.364352 0.065096 0.316246
-0.464812 -0.129297 0.014017
0.018903 0.181860 0.428375
0.070303 0.437810 0.069226
-0.192484 0.043000 0.010333
0.362043 -0.191683 0.310186
-0.120106 -0.092846 -0.025868
-0.235580 0.208819 0.269378
-0.174909 -0.372966 0.280699
-0.049086 -0.218345 -0.077766
-0.073424 0.056385 -0.154002
-0.416701 0.013302 0.037518
0.226274 0.341933 -0.005237
0.219254 0.077399 -0.377660
-0.300841 -0.067042 -0.409516
-0.251760 0.032077 0.277848
0.064116 0.438939 0.029262
0.382215 0.061933 -0.035786
-0.116986 -0.033075 -0.340467
-0.213812 -0.343540 -0.087228
-0.022891 -0.096157 -0.006556
0.249759 0.237723 -0.271096
-0.206154 -0.376899 0.153428
0.047013 -0.078475 -0.281892
0.304300 -0.306756 -0.098099
0.484068 -0.092390 -0.067492
0.177975 -0.329669 0.086727
-0.133584 0.017725 -0.308047
0.273970 0.026671 0.141559
0.165317 0.330628 0.235709
0.255968 -0.071366 0.048448
0.287665 0.261674 -0.238238
0.031606 0.441471 0.015559
0.023821 -0.394637 -0.196781
-0.293983 0.245123 0.143360
-0.032909 0.104476 0.430154
0.135602 -0.373264 -0.153621
0.421077 -0.128111 -0.176193
0.316710 -0.291391 -0.197581
-0.436056 -0.019146 0.229138
-0.094022 -0.341839 -0.299122
0.429747 -0.065629 0.047612
0.329431 -0.077107 0.104666
0.089780 -0.315345 -0.322936
0.407473 0.037341 0.102555
-0.112398 -0.385680 0.270651
-0.157165 0.357683 -0.063069
0.016217 0.428105 0.005698
0.173857 0.256115 0.110214
0.293121 0.327279 0.145737
0.044527 -0.155501 0.169796
0.151952 0.041808 0.382421
0.163325 -0.027756 0.237219
0.053375 0.255310 0.384714
0.331614 -0.169782 -0.017141
-0.148459 -0.092428 -0.020124
-0.338250 -0.060179 -0.317726
-0.307620 0.175707 0.123224
-0.062631 -0.430456 0.345325
0.130588 0.094380 -0.095174
0.006077 -0.145345 0.381453
-0.110259 0.062474 -0.255303
-0.158242 0.394605 0.027383
-0.367206 0.070058 0.164728
-0.341908 -0.179106 -0.141097
-0.232911 0.028142 0.381195
0.241635 -0.141510 -0.027284
0.001896 -0.012947 -0.099837
0.147216 0.350412 -0.031328
-0.368698 -0.123219 0.343516
-0.210887 -0.151801 -0.331183
0.273583 0.438572 -0.101344
0.050638 -0.005120 -0.177588
-0.108900 0.129579 -0.110748
0.076103 -0.395725 0.039883
-0.080665 -0.101972 0.310612
0.022962 -0.235015 -0.049190
-0.158255 -0.058271 -0.303092
0.088164 -0.028911 -0.262956
-0.156870 -0.370240 -0.275936
0.077691 -0.173525 -0.192603
-0.260474 -0.179543 -0.038554
-0.321218 -0.144449 -0.329202
-0.360612 0.326924 -0.143098
0.412680 -0.049184 0.299220
-0.206566 0.371532 0.101913
0.063115 0.359821 -0.076575
0.005729 -0.056858 0.417140
0.425275 -0.058516 0.264389
-0.223140 0.232552 0.360182
0.076855 0.242112 0.391623
0.195804 0.210411 -0.195088
-0.017660 -0.440665 0.112139
-0.271879 0.114738 0.199410
-0.429716 0.000882 0.051702
0.373038 -0.244989 0.143662
-0.288147 0.017206 -0.371567
0.218147 0.001606 0.095581
-0.422441 -0.020396 0.113936
0.108560 0.391268 0.005915
-0.023226 -0.005607 0.436855
0.465306 0.041119 0.035020
-0.030513 0.001575 -0.172009
0.061057 -0.431317 0.147105
0.182190 0.207059 0.119443
0.050084 -0.440885 0.161889
-0.345437 -0.118056 0.093876
-0.080742 0.206646 -0.122493
0.126517 -0.362831 0.098471
-0.308792 0.369130 -0.102736
0.417364 -0.149353 0.143565
0.437665 0.020074 0.080865
-0.163314 0.363673 0.057488
-0.124349 -0.102092 -0.004879
0.109643 -0.216526 0.118943
0.009563 0.028100 -0.178053
0.180742 0.236923 0.055701
-0.349872 0.198966 0.077718
0.375738 0.055075 0.029429
0.309708 -0.214351 -0.013575
-0.310628 0.093062 0.329823
0.229909 0.147935 -0.326312
-0.002105 0.405494 0.145007
0.419047 0.022527 0.168887
-0.102583 0.079311 -0.264362
0.044803 -0.416584 -0.204137
0.101080 -0.378610 0.246497
-0.222404 -0.302799 0.040663
0.209109 -0.277295 -0.127817
0.147265 -0.169820 0.314921
-0.377095 -0.218730 -0.060705
-0.030305 0.295703 -0.293009
0.145289 0.410979 -0.056486
0.073214 0.012054 0.324602
0.188853 0.228907 -0.054949
0.041439 -0.393544 -0.223715
0.158501 -0.443274 0.072337
0.102511 -0.236928 -0.176451
-0.010163 -0.406198 0.325492
-0.135412 0.271672 0.370555
0.003209 -0.426970 0.332135
0.331668 -0.190497 -0.148698
-0.219563 0.211060 -0.432098
0.079769 0.020832 -0.002137
-0.176153 0.164645 -0.288688
0.098819 -0.423405 0.321627
0.291970 0.090574 -0.341417
0.134881 0.101181 -0.327685
-0.347056 -0.078737 -0.006205
-0.342455 0.001102 -0.388604
0.008531 0.001649 -0.175559
0.164750 -0.006504 -0.081431
-0.206709 -0.312054 0.008831
-0.303378 0.132083 -0.321032
0.222511 -0.174346 -0.014169
0.328065 -0.076871 -0.369902
-0.211743 -0.087474 0.030744
0.124132 0.300649 0.049111
-0.441940 -0.007407 0.187420
0.295517 -0.115711 -0.394830
-0.409352 -0.085630 0.206586
-0.388677 -0.082868 -0.057206
-0.464367 0.099863 0.012972
-0.312259 0.033534 0.039381
-0.478033 0.045742 -0.085510
0.278892 0.385143 -0.047524
